-2.3521	-2.0785	6.3243	0.0000	-1.0000	-0.0000
-2.3521	-2.0785	6.8302	0.0000	-1.0000	-0.0000
-2.3521	-2.0785	7.3361	0.0000	-1.0000	-0.0000
-2.3521	-2.0785	7.8421	0.0000	-1.0000	-0.0000
-2.3521	-2.0785	8.3480	0.0000	-1.0000	-0.0000
-2.3521	-2.0785	8.8540	0.0000	-1.0000	-0.0000
-2.3521	-2.0785	9.3599	0.0000	-1.0000	-0.0000
-2.3521	-2.0785	9.8658	0.0000	-1.0000	-0.0000
-2.3521	-2.0785	10.3718	0.0000	-1.0000	-0.0000
-2.3521	-2.0785	10.8777	0.0000	-1.0000	-0.0000
-2.3521	-2.0785	11.3837	0.0000	-1.0000	-0.0000
-2.3521	-2.0785	11.8896	0.0000	-1.0000	-0.0000
-1.8498	-2.0785	0.2530	0.0000	-1.0000	-0.0000
-1.8498	-2.0785	0.7589	0.0000	-1.0000	-0.0000
-1.8498	-2.0785	1.2649	0.0000	-1.0000	-0.0000
-1.8498	-2.0785	1.7708	0.0000	-1.0000	-0.0000
-1.8498	-2.0785	2.2767	0.0000	-1.0000	-0.0000
-1.8498	-2.0785	2.7827	0.0000	-1.0000	-0.0000
-1.8498	-2.0785	3.2886	0.0000	-1.0000	-0.0000
-1.8498	-2.0785	3.7946	0.0000	-1.0000	-0.0000
-1.8498	-2.0785	4.3005	0.0000	-1.0000	-0.0000
-1.8498	-2.0785	4.8064	0.0000	-1.0000	-0.0000
-1.8498	-2.0785	5.3124	0.0000	-1.0000	-0.0000
-1.8498	-2.0785	5.8183	0.0000	-1.0000	-0.0000
-1.8498	-2.0785	6.3243	0.0000	-1.0000	-0.0000
-1.8498	-2.0785	6.8302	0.0000	-1.0000	-0.0000
-1.8498	-2.0785	7.3361	0.0000	-1.0000	-0.0000
-1.8498	-2.0785	7.8421	0.0000	-1.0000	-0.0000
-1.8498	-2.0785	8.3480	0.0000	-1.0000	-0.0000
-1.8498	-2.0785	8.8540	0.0000	-1.0000	-0.0000
-1.8498	-2.0785	9.3599	0.0000	-1.0000	-0.0000
-1.8498	-2.0785	9.8658	0.0000	-1.0000	-0.0000
-1.8498	-2.0785	10.3718	0.0000	-1.0000	-0.0000
-1.8498	-2.0785	10.8777	0.0000	-1.0000	-0.0000
-1.8498	-2.0785	11.3837	0.0000	-1.0000	-0.0000
-1.8498	-2.0785	11.8896	0.0000	-1.0000	-0.0000
-1.3475	-2.0785	0.2530	0.0000	-1.0000	-0.0000
-1.3475	-2.0785	0.7589	0.0000	-1.0000	-0.0000
-1.3475	-2.0785	1.2649	0.0000	-1.0000	-0.0000
-1.3475	-2.0785	1.7708	0.0000	-1.0000	-0.0000
-1.3475	-2.0785	2.2767	0.0000	-1.0000	-0.0000
-1.3475	-2.0785	2.7827	0.0000	-1.0000	-0.0000
-1.3475	-2.0785	3.2886	0.0000	-1.0000	-0.0000
-1.3475	-2.0785	3.7946	0.0000	-1.0000	-0.0000
-1.3475	-2.0785	4.3005	0.0000	-1.0000	-0.0000
-1.3475	-2.0785	4.8064	0.0000	-1.0000	-0.0000
-1.3475	-2.0785	5.3124	0.0000	-1.0000	-0.0000
-1.3475	-2.0785	5.8183	0.0000	-1.0000	-0.0000
-1.3475	-2.0785	6.3243	0.0000	-1.0000	-0.0000
-1.3475	-2.0785	6.8302	0.0000	-1.0000	-0.0000
-1.3475	-2.0785	7.3361	0.0000	-1.0000	-0.0000
-1.3475	-2.0785	7.8421	0.0000	-1.0000	-0.0000
-1.3475	-2.0785	8.3480	0.0000	-1.0000	-0.0000
-1.3475	-2.0785	8.8540	0.0000	-1.0000	-0.0000
-1.3475	-2.0785	9.3599	0.0000	-1.0000	-0.0000
-1.3475	-2.0785	9.8658	0.0000	-1.0000	-0.0000
-1.3475	-2.0785	10.3718	0.0000	-1.0000	-0.0000
-1.3475	-2.0785	10.8777	0.0000	-1.0000	-0.0000
-1.3475	-2.0785	11.3837	0.0000	-1.0000	-0.0000
-1.3475	-2.0785	11.8896	0.0000	-1.0000	-0.0000
-0.8452	-2.0785	0.2530	0.0000	-1.0000	-0.0000
-0.8452	-2.0785	0.7589	0.0000	-1.0000	-0.0000
-0.8452	-2.0785	1.2649	0.0000	-1.0000	-0.0000
-0.8452	-2.0785	1.7708	0.0000	-1.0000	-0.0000
-0.8452	-2.0785	2.2767	0.0000	-1.0000	-0.0000
-0.8452	-2.0785	2.7827	0.0000	-1.0000	-0.0000
-0.8452	-2.0785	3.2886	0.0000	-1.0000	-0.0000
-0.8452	-2.0785	3.7946	0.0000	-1.0000	-0.0000
-0.8452	-2.0785	4.3005	0.0000	-1.0000	-0.0000
-0.8452	-2.0785	4.8064	0.0000	-1.0000	-0.0000
-0.8452	-2.0785	5.3124	0.0000	-1.0000	-0.0000
-0.8452	-2.0785	5.8183	0.0000	-1.0000	-0.0000
-0.8452	-2.0785	6.3243	0.0000	-1.0000	-0.0000
-0.8452	-2.0785	6.8302	0.0000	-1.0000	-0.0000
-0.8452	-2.0785	7.3361	0.0000	-1.0000	-0.0000
-0.8452	-2.0785	7.8421	0.0000	-1.0000	-0.0000
-0.8452	-2.0785	8.3480	0.0000	-1.0000	-0.0000
-0.8452	-2.0785	8.8540	0.0000	-1.0000	-0.0000
-0.8452	-2.0785	9.3599	0.0000	-1.0000	-0.0000
-0.8452	-2.0785	9.8658	0.0000	-1.0000	-0.0000
-0.8452	-2.0785	10.3718	0.0000	-1.0000	-0.0000
-0.8452	-2.0785	10.8777	0.0000	-1.0000	-0.0000
-0.8452	-2.0785	11.3837	0.0000	-1.0000	-0.0000
-0.8452	-2.0785	11.8896	0.0000	-1.0000	-0.0000
-0.3429	-2.0785	0.2530	0.0000	-1.0000	-0.0000
-0.3429	-2.0785	0.7589	0.0000	-1.0000	-0.0000
-0.3429	-2.0785	1.2649	0.0000	-1.0000	-0.0000
-0.3429	-2.0785	1.7708	0.0000	-1.0000	-0.0000
-0.3429	-2.0785	2.2767	0.0000	-1.0000	-0.0000
-0.3429	-2.0785	2.7827	0.0000	-1.0000	-0.0000
-0.3429	-2.0785	3.2886	0.0000	-1.0000	-0.0000
-0.3429	-2.0785	3.7946	0.0000	-1.0000	-0.0000
-0.3429	-2.0785	4.3005	0.0000	-1.0000	-0.0000
-0.3429	-2.0785	4.8064	0.0000	-1.0000	-0.0000
-0.3429	-2.0785	5.3124	0.0000	-1.0000	-0.0000
-0.3429	-2.0785	5.8183	0.0000	-1.0000	-0.0000
-0.3429	-2.0785	6.3243	0.0000	-1.0000	-0.0000
-0.3429	-2.0785	6.8302	0.0000	-1.0000	-0.0000
-0.3429	-2.0785	7.3361	0.0000	-1.0000	-0.0000
-0.3429	-2.0785	7.8421	0.0000	-1.0000	-0.0000
-0.3429	-2.0785	8.3480	0.0000	-1.0000	-0.0000
-0.3429	-2.0785	8.8540	0.0000	-1.0000	-0.0000
-0.3429	-2.0785	9.3599	0.0000	-1.0000	-0.0000
-0.3429	-2.0785	9.8658	0.0000	-1.0000	-0.0000
-0.3429	-2.0785	10.3718	0.0000	-1.0000	-0.0000
-0.3429	-2.0785	10.8777	0.0000	-1.0000	-0.0000
-0.3429	-2.0785	11.3837	0.0000	-1.0000	-0.0000
-0.3429	-2.0785	11.8896	0.0000	-1.0000	-0.0000
0.1594	-2.0785	0.2530	0.0000	-1.0000	-0.0000
0.1594	-2.0785	0.7589	0.0000	-1.0000	-0.0000
0.1594	-2.0785	1.2649	0.0000	-1.0000	-0.0000
0.1594	-2.0785	1.7708	0.0000	-1.0000	-0.0000
0.1594	-2.0785	2.2767	0.0000	-1.0000	-0.0000
0.1594	-2.0785	2.7827	0.0000	-1.0000	-0.0000
0.1594	-2.0785	3.2886	0.0000	-1.0000	-0.0000
0.1594	-2.0785	3.7946	0.0000	-1.0000	-0.0000
0.1594	-2.0785	4.3005	0.0000	-1.0000	-0.0000
0.1594	-2.0785	4.8064	0.0000	-1.0000	-0.0000
0.1594	-2.0785	5.3124	0.0000	-1.0000	-0.0000
0.1594	-2.0785	5.8183	0.0000	-1.0000	-0.0000
0.1594	-2.0785	6.3243	0.0000	-1.0000	-0.0000
0.1594	-2.0785	6.8302	0.0000	-1.0000	-0.0000
0.1594	-2.0785	7.3361	0.0000	-1.0000	-0.0000
0.1594	-2.0785	7.8421	0.0000	-1.0000	-0.0000
0.1594	-2.0785	8.3480	0.0000	-1.0000	-0.0000
0.1594	-2.0785	8.8540	0.0000	-1.0000	-0.0000
0.1594	-2.0785	9.3599	0.0000	-1.0000	-0.0000
0.1594	-2.0785	9.8658	0.0000	-1.0000	-0.0000
0.1594	-2.0785	10.3718	0.0000	-1.0000	-0.0000
0.1594	-2.0785	10.8777	0.0000	-1.0000	-0.0000
0.1594	-2.0785	11.3837	0.0000	-1.0000	-0.0000
0.1594	-2.0785	11.8896	0.0000	-1.0000	-0.0000
0.6617	-2.0785	0.2530	0.0000	-1.0000	-0.0000
0.6617	-2.0785	0.7589	0.0000	-1.0000	-0.0000
0.6617	-2.0785	1.2649	0.0000	-1.0000	-0.0000
0.6617	-2.0785	1.7708	0.0000	-1.0000	-0.0000
0.6617	-2.0785	2.2767	0.0000	-1.0000	-0.0000
0.6617	-2.0785	2.7827	0.0000	-1.0000	-0.0000
0.6617	-2.0785	3.2886	0.0000	-1.0000	-0.0000
0.6617	-2.0785	3.7946	0.0000	-1.0000	-0.0000
0.6617	-2.0785	4.3005	0.0000	-1.0000	-0.0000
0.6617	-2.0785	4.8064	0.0000	-1.0000	-0.0000
0.6617	-2.0785	5.3124	0.0000	-1.0000	-0.0000
0.6617	-2.0785	5.8183	0.0000	-1.0000	-0.0000
0.6617	-2.0785	6.3243	0.0000	-1.0000	-0.0000
0.6617	-2.0785	6.8302	0.0000	-1.0000	-0.0000
0.6617	-2.0785	7.3361	0.0000	-1.0000	-0.0000
0.6617	-2.0785	7.8421	0.0000	-1.0000	-0.0000
0.6617	-2.0785	8.3480	0.0000	-1.0000	-0.0000
0.6617	-2.0785	8.8540	0.0000	-1.0000	-0.0000
0.6617	-2.0785	9.3599	0.0000	-1.0000	-0.0000
0.6617	-2.0785	9.8658	0.0000	-1.0000	-0.0000
0.6617	-2.0785	10.3718	0.0000	-1.0000	-0.0000
0.6617	-2.0785	10.8777	0.0000	-1.0000	-0.0000
0.6617	-2.0785	11.3837	0.0000	-1.0000	-0.0000
0.6617	-2.0785	11.8896	0.0000	-1.0000	-0.0000
1.1640	-2.0785	0.2530	0.0000	-1.0000	-0.0000
1.1640	-2.0785	0.7589	0.0000	-1.0000	-0.0000
1.1640	-2.0785	1.2649	0.0000	-1.0000	-0.0000
1.1640	-2.0785	1.7708	0.0000	-1.0000	-0.0000
1.1640	-2.0785	2.2767	0.0000	-1.0000	-0.0000
1.1640	-2.0785	2.7827	0.0000	-1.0000	-0.0000
1.1640	-2.0785	3.2886	0.0000	-1.0000	-0.0000
1.1640	-2.0785	3.7946	0.0000	-1.0000	-0.0000
1.1640	-2.0785	4.3005	0.0000	-1.0000	-0.0000
1.1640	-2.0785	4.8064	0.0000	-1.0000	-0.0000
1.1640	-2.0785	5.3124	0.0000	-1.0000	-0.0000
1.1640	-2.0785	5.8183	0.0000	-1.0000	-0.0000
1.1640	-2.0785	6.3243	0.0000	-1.0000	-0.0000
1.1640	-2.0785	6.8302	0.0000	-1.0000	-0.0000
1.1640	-2.0785	7.3361	0.0000	-1.0000	-0.0000
1.1640	-2.0785	7.8421	0.0000	-1.0000	-0.0000
1.1640	-2.0785	8.3480	0.0000	-1.0000	-0.0000
1.1640	-2.0785	8.8540	0.0000	-1.0000	-0.0000
1.1640	-2.0785	9.3599	0.0000	-1.0000	-0.0000
1.1640	-2.0785	9.8658	0.0000	-1.0000	-0.0000
1.1640	-2.0785	10.3718	0.0000	-1.0000	-0.0000
1.1640	-2.0785	10.8777	0.0000	-1.0000	-0.0000
1.1640	-2.0785	11.3837	0.0000	-1.0000	-0.0000
1.1640	-2.0785	11.8896	0.0000	-1.0000	-0.0000
1.6663	-2.0785	0.2530	0.0000	-1.0000	-0.0000
1.6663	-2.0785	0.7589	0.0000	-1.0000	-0.0000
1.6663	-2.0785	1.2649	0.0000	-1.0000	-0.0000
1.6663	-2.0785	1.7708	0.0000	-1.0000	-0.0000
1.6663	-2.0785	2.2767	0.0000	-1.0000	-0.0000
1.6663	-2.0785	2.7827	0.0000	-1.0000	-0.0000
1.6663	-2.0785	3.2886	0.0000	-1.0000	-0.0000
1.6663	-2.0785	3.7946	0.0000	-1.0000	-0.0000
1.6663	-2.0785	4.3005	0.0000	-1.0000	-0.0000
1.6663	-2.0785	4.8064	0.0000	-1.0000	-0.0000
1.6663	-2.0785	5.3124	0.0000	-1.0000	-0.0000
1.6663	-2.0785	5.8183	0.0000	-1.0000	-0.0000
1.6663	-2.0785	6.3243	0.0000	-1.0000	-0.0000
1.6663	-2.0785	6.8302	0.0000	-1.0000	-0.0000
1.6663	-2.0785	7.3361	0.0000	-1.0000	-0.0000
1.6663	-2.0785	7.8421	0.0000	-1.0000	-0.0000
1.6663	-2.0785	8.3480	0.0000	-1.0000	-0.0000
1.6663	-2.0785	8.8540	0.0000	-1.0000	-0.0000
1.6663	-2.0785	9.3599	0.0000	-1.0000	-0.0000
1.6663	-2.0785	9.8658	0.0000	-1.0000	-0.0000
1.6663	-2.0785	10.3718	0.0000	-1.0000	-0.0000
1.6663	-2.0785	10.8777	0.0000	-1.0000	-0.0000
1.6663	-2.0785	11.3837	0.0000	-1.0000	-0.0000
1.6663	-2.0785	11.8896	0.0000	-1.0000	-0.0000
2.1687	-2.0785	0.2530	0.0000	-1.0000	-0.0000
2.1687	-2.0785	0.7589	0.0000	-1.0000	-0.0000
2.1687	-2.0785	1.2649	0.0000	-1.0000	-0.0000
2.1687	-2.0785	1.7708	0.0000	-1.0000	-0.0000
2.1687	-2.0785	2.2767	0.0000	-1.0000	-0.0000
2.1687	-2.0785	2.7827	0.0000	-1.0000	-0.0000
2.1687	-2.0785	3.2886	0.0000	-1.0000	-0.0000
2.1687	-2.0785	3.7946	0.0000	-1.0000	-0.0000
2.1687	-2.0785	4.3005	0.0000	-1.0000	-0.0000
2.1687	-2.0785	4.8064	0.0000	-1.0000	-0.0000
2.1687	-2.0785	5.3124	0.0000	-1.0000	-0.0000
2.1687	-2.0785	5.8183	0.0000	-1.0000	-0.0000
2.1687	-2.0785	6.3243	0.0000	-1.0000	-0.0000
2.1687	-2.0785	6.8302	0.0000	-1.0000	-0.0000
2.1687	-2.0785	7.3361	0.0000	-1.0000	-0.0000
2.1687	-2.0785	7.8421	0.0000	-1.0000	-0.0000
2.1687	-2.0785	8.3480	0.0000	-1.0000	-0.0000
2.1687	-2.0785	8.8540	0.0000	-1.0000	-0.0000
2.1687	-2.0785	9.3599	0.0000	-1.0000	-0.0000
2.1687	-2.0785	9.8658	0.0000	-1.0000	-0.0000
2.1687	-2.0785	10.3718	0.0000	-1.0000	-0.0000
2.1687	-2.0785	10.8777	0.0000	-1.0000	-0.0000
2.1687	-2.0785	11.3837	0.0000	-1.0000	-0.0000
2.1687	-2.0785	11.8896	0.0000	-1.0000	-0.0000
2.6710	-2.0785	0.2530	0.0000	-1.0000	-0.0000
2.6710	-2.0785	0.7589	0.0000	-1.0000	-0.0000
2.6710	-2.0785	1.2649	0.0000	-1.0000	-0.0000
2.6710	-2.0785	1.7708	0.0000	-1.0000	-0.0000
2.6710	-2.0785	2.2767	0.0000	-1.0000	-0.0000
2.6710	-2.0785	2.7827	0.0000	-1.0000	-0.0000
2.6710	-2.0785	3.2886	0.0000	-1.0000	-0.0000
2.6710	-2.0785	3.7946	0.0000	-1.0000	-0.0000
2.6710	-2.0785	4.3005	0.0000	-1.0000	-0.0000
2.6710	-2.0785	4.8064	0.0000	-1.0000	-0.0000
2.6710	-2.0785	5.3124	0.0000	-1.0000	-0.0000
2.6710	-2.0785	5.8183	0.0000	-1.0000	-0.0000
2.6710	-2.0785	6.3243	0.0000	-1.0000	-0.0000
2.6710	-2.0785	6.8302	0.0000	-1.0000	-0.0000
2.6710	-2.0785	7.3361	0.0000	-1.0000	-0.0000
2.6710	-2.0785	7.8421	0.0000	-1.0000	-0.0000
2.6710	-2.0785	8.3480	0.0000	-1.0000	-0.0000
2.6710	-2.0785	8.8540	0.0000	-1.0000	-0.0000
2.6710	-2.0785	9.3599	0.0000	-1.0000	-0.0000
2.6710	-2.0785	9.8658	0.0000	-1.0000	-0.0000
2.6710	-2.0785	10.3718	0.0000	-1.0000	-0.0000
2.6710	-2.0785	10.8777	0.0000	-1.0000	-0.0000
2.6710	-2.0785	11.3837	0.0000	-1.0000	-0.0000
2.6710	-2.0785	11.8896	0.0000	-1.0000	-0.0000
3.1733	-2.0785	0.2530	0.0000	-1.0000	-0.0000
3.1733	-2.0785	0.7589	0.0000	-1.0000	-0.0000
3.1733	-2.0785	1.2649	0.0000	-1.0000	-0.0000
3.1733	-2.0785	1.7708	0.0000	-1.0000	-0.0000
3.1733	-2.0785	2.2767	0.0000	-1.0000	-0.0000
3.1733	-2.0785	2.7827	0.0000	-1.0000	-0.0000
3.1733	-2.0785	3.2886	0.0000	-1.0000	-0.0000
3.1733	-2.0785	3.7946	0.0000	-1.0000	-0.0000
3.1733	-2.0785	4.3005	0.0000	-1.0000	-0.0000
3.1733	-2.0785	4.8064	0.0000	-1.0000	-0.0000
3.1733	-2.0785	5.3124	0.0000	-1.0000	-0.0000
3.1733	-2.0785	5.8183	0.0000	-1.0000	-0.0000
3.1733	-2.0785	6.3243	0.0000	-1.0000	-0.0000
3.1733	-2.0785	6.8302	0.0000	-1.0000	-0.0000
3.1733	-2.0785	7.3361	0.0000	-1.0000	-0.0000
3.1733	-2.0785	7.8421	0.0000	-1.0000	-0.0000
3.1733	-2.0785	8.3480	0.0000	-1.0000	-0.0000
3.1733	-2.0785	8.8540	0.0000	-1.0000	-0.0000
3.1733	-2.0785	9.3599	0.0000	-1.0000	-0.0000
3.1733	-2.0785	9.8658	0.0000	-1.0000	-0.0000
3.1733	-2.0785	10.3718	0.0000	-1.0000	-0.0000
3.1733	-2.0785	10.8777	0.0000	-1.0000	-0.0000
3.1733	-2.0785	11.3837	0.0000	-1.0000	-0.0000
3.1733	-2.0785	11.8896	0.0000	-1.0000	-0.0000
3.6756	-2.0785	0.2530	0.0000	-1.0000	-0.0000
3.6756	-2.0785	0.7589	0.0000	-1.0000	-0.0000
3.6756	-2.0785	1.2649	0.0000	-1.0000	-0.0000
3.6756	-2.0785	1.7708	0.0000	-1.0000	-0.0000
3.6756	-2.0785	2.2767	0.0000	-1.0000	-0.0000
3.6756	-2.0785	2.7827	0.0000	-1.0000	-0.0000
3.6756	-2.0785	3.2886	0.0000	-1.0000	-0.0000
3.6756	-2.0785	3.7946	0.0000	-1.0000	-0.0000
3.6756	-2.0785	4.3005	0.0000	-1.0000	-0.0000
3.6756	-2.0785	4.8064	0.0000	-1.0000	-0.0000
3.6756	-2.0785	5.3124	0.0000	-1.0000	-0.0000
3.6756	-2.0785	5.8183	0.0000	-1.0000	-0.0000
3.6756	-2.0785	6.3243	0.0000	-1.0000	-0.0000
3.6756	-2.0785	6.8302	0.0000	-1.0000	-0.0000
3.6756	-2.0785	7.3361	0.0000	-1.0000	-0.0000
3.6756	-2.0785	7.8421	0.0000	-1.0000	-0.0000
3.6756	-2.0785	8.3480	0.0000	-1.0000	-0.0000
3.6756	-2.0785	8.8540	0.0000	-1.0000	-0.0000
3.6756	-2.0785	9.3599	0.0000	-1.0000	-0.0000
3.6756	-2.0785	9.8658	0.0000	-1.0000	-0.0000
3.6756	-2.0785	10.3718	0.0000	-1.0000	-0.0000
3.6756	-2.0785	10.8777	0.0000	-1.0000	-0.0000
3.6756	-2.0785	11.3837	0.0000	-1.0000	-0.0000
3.6756	-2.0785	11.8896	0.0000	-1.0000	-0.0000
4.1779	-2.0785	0.2530	0.0000	-1.0000	-0.0000
4.1779	-2.0785	0.7589	0.0000	-1.0000	-0.0000
4.1779	-2.0785	1.2649	0.0000	-1.0000	-0.0000
4.1779	-2.0785	1.7708	0.0000	-1.0000	-0.0000
4.1779	-2.0785	2.2767	0.0000	-1.0000	-0.0000
4.1779	-2.0785	2.7827	0.0000	-1.0000	-0.0000
4.1779	-2.0785	3.2886	0.0000	-1.0000	-0.0000
4.1779	-2.0785	3.7946	0.0000	-1.0000	-0.0000
4.1779	-2.0785	4.3005	0.0000	-1.0000	-0.0000
4.1779	-2.0785	4.8064	0.0000	-1.0000	-0.0000
4.1779	-2.0785	5.3124	0.0000	-1.0000	-0.0000
4.1779	-2.0785	5.8183	0.0000	-1.0000	-0.0000
4.1779	-2.0785	6.3243	0.0000	-1.0000	-0.0000
4.1779	-2.0785	6.8302	0.0000	-1.0000	-0.0000
4.1779	-2.0785	7.3361	0.0000	-1.0000	-0.0000
4.1779	-2.0785	7.8421	0.0000	-1.0000	-0.0000
4.1779	-2.0785	8.3480	0.0000	-1.0000	-0.0000
4.1779	-2.0785	8.8540	0.0000	-1.0000	-0.0000
4.1779	-2.0785	9.3599	0.0000	-1.0000	-0.0000
4.1779	-2.0785	9.8658	0.0000	-1.0000	-0.0000
4.1779	-2.0785	10.3718	0.0000	-1.0000	-0.0000
4.1779	-2.0785	10.8777	0.0000	-1.0000	-0.0000
4.1779	-2.0785	11.3837	0.0000	-1.0000	-0.0000
4.1779	-2.0785	11.8896	0.0000	-1.0000	-0.0000
4.6802	-2.0785	0.2530	0.0000	-1.0000	-0.0000
4.6802	-2.0785	0.7589	0.0000	-1.0000	-0.0000
4.6802	-2.0785	1.2649	0.0000	-1.0000	-0.0000
4.6802	-2.0785	1.7708	0.0000	-1.0000	-0.0000
4.6802	-2.0785	2.2767	0.0000	-1.0000	-0.0000
4.6802	-2.0785	2.7827	0.0000	-1.0000	-0.0000
4.6802	-2.0785	3.2886	0.0000	-1.0000	-0.0000
4.6802	-2.0785	3.7946	0.0000	-1.0000	-0.0000
4.6802	-2.0785	4.3005	0.0000	-1.0000	-0.0000
4.6802	-2.0785	4.8064	0.0000	-1.0000	-0.0000
4.6802	-2.0785	5.3124	0.0000	-1.0000	-0.0000
4.6802	-2.0785	5.8183	0.0000	-1.0000	-0.0000
4.6802	-2.0785	6.3243	0.0000	-1.0000	-0.0000
4.6802	-2.0785	6.8302	0.0000	-1.0000	-0.0000
4.6802	-2.0785	7.3361	0.0000	-1.0000	-0.0000
4.6802	-2.0785	7.8421	0.0000	-1.0000	-0.0000
4.6802	-2.0785	8.3480	0.0000	-1.0000	-0.0000
4.6802	-2.0785	8.8540	0.0000	-1.0000	-0.0000
4.6802	-2.0785	9.3599	0.0000	-1.0000	-0.0000
4.6802	-2.0785	9.8658	0.0000	-1.0000	-0.0000
4.6802	-2.0785	10.3718	0.0000	-1.0000	-0.0000
4.6802	-2.0785	10.8777	0.0000	-1.0000	-0.0000
4.6802	-2.0785	11.3837	0.0000	-1.0000	-0.0000
4.6802	-2.0785	11.8896	0.0000	-1.0000	-0.0000
5.0313	-1.7199	0.2530	1.0000	0.0000	0.0000
5.0313	-1.7199	0.7589	1.0000	0.0000	0.0000
5.0313	-1.7199	1.2649	1.0000	0.0000	0.0000
5.0313	-1.7199	1.7708	1.0000	0.0000	0.0000
5.0313	-1.7199	2.2767	1.0000	0.0000	0.0000
5.0313	-1.7199	2.7827	1.0000	0.0000	0.0000
5.0313	-1.7199	3.2886	1.0000	0.0000	0.0000
5.0313	-1.7199	3.7946	1.0000	0.0000	0.0000
5.0313	-1.7199	4.3005	1.0000	0.0000	0.0000
5.0313	-1.7199	4.8064	1.0000	0.0000	0.0000
5.0313	-1.7199	5.3124	1.0000	0.0000	0.0000
5.0313	-1.7199	5.8183	1.0000	0.0000	0.0000
5.0313	-1.7199	6.3243	1.0000	0.0000	0.0000
5.0313	-1.7199	6.8302	1.0000	0.0000	0.0000
5.0313	-1.7199	7.3361	1.0000	0.0000	0.0000
5.0313	-1.7199	7.8421	1.0000	0.0000	0.0000
5.0313	-1.7199	8.3480	1.0000	0.0000	0.0000
5.0313	-1.7199	8.8540	1.0000	0.0000	0.0000
5.0313	-1.7199	9.3599	1.0000	0.0000	0.0000
5.0313	-1.7199	9.8658	1.0000	0.0000	0.0000
5.0313	-1.7199	10.3718	1.0000	0.0000	0.0000
5.0313	-1.7199	10.8777	1.0000	0.0000	0.0000
5.0313	-1.7199	11.3837	1.0000	0.0000	0.0000
5.0313	-1.7199	11.8896	1.0000	0.0000	0.0000
5.0313	-1.2029	0.2530	1.0000	0.0000	0.0000
5.0313	-1.2029	0.7589	1.0000	0.0000	0.0000
5.0313	-1.2029	1.2649	1.0000	0.0000	0.0000
5.0313	-1.2029	1.7708	1.0000	0.0000	0.0000
5.0313	-1.2029	2.2767	1.0000	0.0000	0.0000
5.0313	-1.2029	2.7827	1.0000	0.0000	0.0000
5.0313	-1.2029	3.2886	1.0000	0.0000	0.0000
5.0313	-1.2029	3.7946	1.0000	0.0000	0.0000
5.0313	-1.2029	4.3005	1.0000	0.0000	0.0000
5.0313	-1.2029	4.8064	1.0000	0.0000	0.0000
5.0313	-1.2029	5.3124	1.0000	0.0000	0.0000
5.0313	-1.2029	5.8183	1.0000	0.0000	0.0000
5.0313	-1.2029	6.3243	1.0000	0.0000	0.0000
5.0313	-1.2029	6.8302	1.0000	0.0000	0.0000
5.0313	-1.2029	7.3361	1.0000	0.0000	0.0000
5.0313	-1.2029	7.8421	1.0000	0.0000	0.0000
5.0313	-1.2029	8.3480	1.0000	0.0000	0.0000
5.0313	-1.2029	8.8540	1.0000	0.0000	0.0000
5.0313	-1.2029	9.3599	1.0000	0.0000	0.0000
5.0313	-1.2029	9.8658	1.0000	0.0000	0.0000
5.0313	-1.2029	10.3718	1.0000	0.0000	0.0000
5.0313	-1.2029	10.8777	1.0000	0.0000	0.0000
5.0313	-1.2029	11.3837	1.0000	0.0000	0.0000
5.0313	-1.2029	11.8896	1.0000	0.0000	0.0000
5.0313	-0.6858	0.2530	1.0000	0.0000	0.0000
5.0313	-0.6858	0.7589	1.0000	0.0000	0.0000
5.0313	-0.6858	1.2649	1.0000	0.0000	0.0000
5.0313	-0.6858	1.7708	1.0000	0.0000	0.0000
5.0313	-0.6858	2.2767	1.0000	0.0000	0.0000
5.0313	-0.6858	2.7827	1.0000	0.0000	0.0000
5.0313	-0.6858	3.2886	1.0000	0.0000	0.0000
5.0313	-0.6858	3.7946	1.0000	0.0000	0.0000
5.0313	-0.6858	4.3005	1.0000	0.0000	0.0000
5.0313	-0.6858	4.8064	1.0000	0.0000	0.0000
5.0313	-0.6858	5.3124	1.0000	0.0000	0.0000
5.0313	-0.6858	5.8183	1.0000	0.0000	0.0000
5.0313	-0.6858	6.3243	1.0000	0.0000	0.0000
5.0313	-0.6858	6.8302	1.0000	0.0000	0.0000
5.0313	-0.6858	7.3361	1.0000	0.0000	0.0000
5.0313	-0.6858	7.8421	1.0000	0.0000	0.0000
5.0313	-0.6858	8.3480	1.0000	0.0000	0.0000
5.0313	-0.6858	8.8540	1.0000	0.0000	0.0000
5.0313	-0.6858	9.3599	1.0000	0.0000	0.0000
5.0313	-0.6858	9.8658	1.0000	0.0000	0.0000
5.0313	-0.6858	10.3718	1.0000	0.0000	0.0000
5.0313	-0.6858	10.8777	1.0000	0.0000	0.0000
5.0313	-0.6858	11.3837	1.0000	0.0000	0.0000
5.0313	-0.6858	11.8896	1.0000	0.0000	0.0000
5.0313	-0.1688	0.2530	1.0000	0.0000	0.0000
5.0313	-0.1688	0.7589	1.0000	0.0000	0.0000
5.0313	-0.1688	1.2649	1.0000	0.0000	0.0000
5.0313	-0.1688	1.7708	1.0000	0.0000	0.0000
5.0313	-0.1688	2.2767	1.0000	0.0000	0.0000
5.0313	-0.1688	2.7827	1.0000	0.0000	0.0000
5.0313	-0.1688	3.2886	1.0000	0.0000	0.0000
5.0313	-0.1688	3.7946	1.0000	0.0000	0.0000
5.0313	-0.1688	4.3005	1.0000	0.0000	0.0000
5.0313	-0.1688	4.8064	1.0000	0.0000	0.0000
5.0313	-0.1688	5.3124	1.0000	0.0000	0.0000
5.0313	-0.1688	5.8183	1.0000	0.0000	0.0000
5.0313	-0.1688	6.3243	1.0000	0.0000	0.0000
5.0313	-0.1688	6.8302	1.0000	0.0000	0.0000
5.0313	-0.1688	7.3361	1.0000	0.0000	0.0000
5.0313	-0.1688	7.8421	1.0000	0.0000	0.0000
5.0313	-0.1688	8.3480	1.0000	0.0000	0.0000
5.0313	-0.1688	8.8540	1.0000	0.0000	0.0000
5.0313	-0.1688	9.3599	1.0000	0.0000	0.0000
5.0313	-0.1688	9.8658	1.0000	0.0000	0.0000
5.0313	-0.1688	10.3718	1.0000	0.0000	0.0000
5.0313	-0.1688	10.8777	1.0000	0.0000	0.0000
5.0313	-0.1688	11.3837	1.0000	0.0000	0.0000
5.0313	-0.1688	11.8896	1.0000	0.0000	0.0000
5.0313	0.3482	0.2530	1.0000	0.0000	0.0000
5.0313	0.3482	0.7589	1.0000	0.0000	0.0000
5.0313	0.3482	1.2649	1.0000	0.0000	0.0000
5.0313	0.3482	1.7708	1.0000	0.0000	0.0000
5.0313	0.3482	2.2767	1.0000	0.0000	0.0000
5.0313	0.3482	2.7827	1.0000	0.0000	0.0000
5.0313	0.3482	3.2886	1.0000	0.0000	0.0000
5.0313	0.3482	3.7946	1.0000	0.0000	0.0000
5.0313	0.3482	4.3005	1.0000	0.0000	0.0000
5.0313	0.3482	4.8064	1.0000	0.0000	0.0000
5.0313	0.3482	5.3124	1.0000	0.0000	0.0000
5.0313	0.3482	5.8183	1.0000	0.0000	0.0000
5.0313	0.3482	6.3243	1.0000	0.0000	0.0000
5.0313	0.3482	6.8302	1.0000	0.0000	0.0000
5.0313	0.3482	7.3361	1.0000	0.0000	0.0000
5.0313	0.3482	7.8421	1.0000	0.0000	0.0000
5.0313	0.3482	8.3480	1.0000	0.0000	0.0000
5.0313	0.3482	8.8540	1.0000	0.0000	0.0000
5.0313	0.3482	9.3599	1.0000	0.0000	0.0000
5.0313	0.3482	9.8658	1.0000	0.0000	0.0000
5.0313	0.3482	10.3718	1.0000	0.0000	0.0000
5.0313	0.3482	10.8777	1.0000	0.0000	0.0000
5.0313	0.3482	11.3837	1.0000	0.0000	0.0000
5.0313	0.3482	11.8896	1.0000	0.0000	0.0000
5.0313	0.8653	0.2530	1.0000	0.0000	0.0000
5.0313	0.8653	0.7589	1.0000	0.0000	0.0000
5.0313	0.8653	1.2649	1.0000	0.0000	0.0000
5.0313	0.8653	1.7708	1.0000	0.0000	0.0000
5.0313	0.8653	2.2767	1.0000	0.0000	0.0000
5.0313	0.8653	2.7827	1.0000	0.0000	0.0000
5.0313	0.8653	3.2886	1.0000	0.0000	0.0000
5.0313	0.8653	3.7946	1.0000	0.0000	0.0000
5.0313	0.8653	4.3005	1.0000	0.0000	0.0000
5.0313	0.8653	4.8064	1.0000	0.0000	0.0000
5.0313	0.8653	5.3124	1.0000	0.0000	0.0000
5.0313	0.8653	5.8183	1.0000	0.0000	0.0000
5.0313	0.8653	6.3243	1.0000	0.0000	0.0000
5.0313	0.8653	6.8302	1.0000	0.0000	0.0000
5.0313	0.8653	7.3361	1.0000	0.0000	0.0000
5.0313	0.8653	7.8421	1.0000	0.0000	0.0000
5.0313	0.8653	8.3480	1.0000	0.0000	0.0000
5.0313	0.8653	8.8540	1.0000	0.0000	0.0000
5.0313	0.8653	9.3599	1.0000	0.0000	0.0000
5.0313	0.8653	9.8658	1.0000	0.0000	0.0000
5.0313	0.8653	10.3718	1.0000	0.0000	0.0000
5.0313	0.8653	10.8777	1.0000	0.0000	0.0000
5.0313	0.8653	11.3837	1.0000	0.0000	0.0000
5.0313	0.8653	11.8896	1.0000	0.0000	0.0000
5.0313	1.3823	0.2530	1.0000	0.0000	0.0000
5.0313	1.3823	0.7589	1.0000	0.0000	0.0000
5.0313	1.3823	1.2649	1.0000	0.0000	0.0000
5.0313	1.3823	1.7708	1.0000	0.0000	0.0000
5.0313	1.3823	2.2767	1.0000	0.0000	0.0000
5.0313	1.3823	2.7827	1.0000	0.0000	0.0000
5.0313	1.3823	3.2886	1.0000	0.0000	0.0000
5.0313	1.3823	3.7946	1.0000	0.0000	0.0000
5.0313	1.3823	4.3005	1.0000	0.0000	0.0000
5.0313	1.3823	4.8064	1.0000	0.0000	0.0000
5.0313	1.3823	5.3124	1.0000	0.0000	0.0000
5.0313	1.3823	5.8183	1.0000	0.0000	0.0000
5.0313	1.3823	6.3243	1.0000	0.0000	0.0000
5.0313	1.3823	6.8302	1.0000	0.0000	0.0000
5.0313	1.3823	7.3361	1.0000	0.0000	0.0000
5.0313	1.3823	7.8421	1.0000	0.0000	0.0000
5.0313	1.3823	8.3480	1.0000	0.0000	0.0000
5.0313	1.3823	8.8540	1.0000	0.0000	0.0000
5.0313	1.3823	9.3599	1.0000	0.0000	0.0000
5.0313	1.3823	9.8658	1.0000	0.0000	0.0000
5.0313	1.3823	10.3718	1.0000	0.0000	0.0000
5.0313	1.3823	10.8777	1.0000	0.0000	0.0000
5.0313	1.3823	11.3837	1.0000	0.0000	0.0000
5.0313	1.3823	11.8896	1.0000	0.0000	0.0000
5.0313	1.8994	0.2530	1.0000	0.0000	0.0000
5.0313	1.8994	0.7589	1.0000	0.0000	0.0000
5.0313	1.8994	1.2649	1.0000	0.0000	0.0000
5.0313	1.8994	1.7708	1.0000	0.0000	0.0000
5.0313	1.8994	2.2767	1.0000	0.0000	0.0000
5.0313	1.8994	2.7827	1.0000	0.0000	0.0000
5.0313	1.8994	3.2886	1.0000	0.0000	0.0000
5.0313	1.8994	3.7946	1.0000	0.0000	0.0000
5.0313	1.8994	4.3005	1.0000	0.0000	0.0000
5.0313	1.8994	4.8064	1.0000	0.0000	0.0000
5.0313	1.8994	5.3124	1.0000	0.0000	0.0000
5.0313	1.8994	5.8183	1.0000	0.0000	0.0000
5.0313	1.8994	6.3243	1.0000	0.0000	0.0000
5.0313	1.8994	6.8302	1.0000	0.0000	0.0000
5.0313	1.8994	7.3361	1.0000	0.0000	0.0000
5.0313	1.8994	7.8421	1.0000	0.0000	0.0000
5.0313	1.8994	8.3480	1.0000	0.0000	0.0000
5.0313	1.8994	8.8540	1.0000	0.0000	0.0000
5.0313	1.8994	9.3599	1.0000	0.0000	0.0000
5.0313	1.8994	9.8658	1.0000	0.0000	0.0000
5.0313	1.8994	10.3718	1.0000	0.0000	0.0000
5.0313	1.8994	10.8777	1.0000	0.0000	0.0000
5.0313	1.8994	11.3837	1.0000	0.0000	0.0000
5.0313	1.8994	11.8896	1.0000	0.0000	0.0000
5.0313	2.4164	0.2530	1.0000	0.0000	0.0000
5.0313	2.4164	0.7589	1.0000	0.0000	0.0000
5.0313	2.4164	1.2649	1.0000	0.0000	0.0000
5.0313	2.4164	1.7708	1.0000	0.0000	0.0000
5.0313	2.4164	2.2767	1.0000	0.0000	0.0000
5.0313	2.4164	2.7827	1.0000	0.0000	0.0000
5.0313	2.4164	3.2886	1.0000	0.0000	0.0000
5.0313	2.4164	3.7946	1.0000	0.0000	0.0000
5.0313	2.4164	4.3005	1.0000	0.0000	0.0000
5.0313	2.4164	4.8064	1.0000	0.0000	0.0000
5.0313	2.4164	5.3124	1.0000	0.0000	0.0000
5.0313	2.4164	5.8183	1.0000	0.0000	0.0000
5.0313	2.4164	6.3243	1.0000	0.0000	0.0000
5.0313	2.4164	6.8302	1.0000	0.0000	0.0000
5.0313	2.4164	7.3361	1.0000	0.0000	0.0000
5.0313	2.4164	7.8421	1.0000	0.0000	0.0000
5.0313	2.4164	8.3480	1.0000	0.0000	0.0000
5.0313	2.4164	8.8540	1.0000	0.0000	0.0000
5.0313	2.4164	9.3599	1.0000	0.0000	0.0000
5.0313	2.4164	9.8658	1.0000	0.0000	0.0000
5.0313	2.4164	10.3718	1.0000	0.0000	0.0000
5.0313	2.4164	10.8777	1.0000	0.0000	0.0000
5.0313	2.4164	11.3837	1.0000	0.0000	0.0000
5.0313	2.4164	11.8896	1.0000	0.0000	0.0000
5.0313	2.9335	0.2530	1.0000	0.0000	0.0000
5.0313	2.9335	0.7589	1.0000	0.0000	0.0000
5.0313	2.9335	1.2649	1.0000	0.0000	0.0000
5.0313	2.9335	1.7708	1.0000	0.0000	0.0000
5.0313	2.9335	2.2767	1.0000	0.0000	0.0000
5.0313	2.9335	2.7827	1.0000	0.0000	0.0000
5.0313	2.9335	3.2886	1.0000	0.0000	0.0000
5.0313	2.9335	3.7946	1.0000	0.0000	0.0000
5.0313	2.9335	4.3005	1.0000	0.0000	0.0000
5.0313	2.9335	4.8064	1.0000	0.0000	0.0000
5.0313	2.9335	5.3124	1.0000	0.0000	0.0000
5.0313	2.9335	5.8183	1.0000	0.0000	0.0000
5.0313	2.9335	6.3243	1.0000	0.0000	0.0000
5.0313	2.9335	6.8302	1.0000	0.0000	0.0000
5.0313	2.9335	7.3361	1.0000	0.0000	0.0000
5.0313	2.9335	7.8421	1.0000	0.0000	0.0000
5.0313	2.9335	8.3480	1.0000	0.0000	0.0000
5.0313	2.9335	8.8540	1.0000	0.0000	0.0000
5.0313	2.9335	9.3599	1.0000	0.0000	0.0000
5.0313	2.9335	9.8658	1.0000	0.0000	0.0000
5.0313	2.9335	10.3718	1.0000	0.0000	0.0000
5.0313	2.9335	10.8777	1.0000	0.0000	0.0000
5.0313	2.9335	11.3837	1.0000	0.0000	0.0000
5.0313	2.9335	11.8896	1.0000	0.0000	0.0000
5.0313	3.4505	0.2530	1.0000	0.0000	0.0000
5.0313	3.4505	0.7589	1.0000	0.0000	0.0000
5.0313	3.4505	1.2649	1.0000	0.0000	0.0000
5.0313	3.4505	1.7708	1.0000	0.0000	0.0000
5.0313	3.4505	2.2767	1.0000	0.0000	0.0000
5.0313	3.4505	2.7827	1.0000	0.0000	0.0000
5.0313	3.4505	3.2886	1.0000	0.0000	0.0000
5.0313	3.4505	3.7946	1.0000	0.0000	0.0000
5.0313	3.4505	4.3005	1.0000	0.0000	0.0000
5.0313	3.4505	4.8064	1.0000	0.0000	0.0000
5.0313	3.4505	5.3124	1.0000	0.0000	0.0000
5.0313	3.4505	5.8183	1.0000	0.0000	0.0000
5.0313	3.4505	6.3243	1.0000	0.0000	0.0000
5.0313	3.4505	6.8302	1.0000	0.0000	0.0000
5.0313	3.4505	7.3361	1.0000	0.0000	0.0000
5.0313	3.4505	7.8421	1.0000	0.0000	0.0000
5.0313	3.4505	8.3480	1.0000	0.0000	0.0000
5.0313	3.4505	8.8540	1.0000	0.0000	0.0000
5.0313	3.4505	9.3599	1.0000	0.0000	0.0000
5.0313	3.4505	9.8658	1.0000	0.0000	0.0000
5.0313	3.4505	10.3718	1.0000	0.0000	0.0000
5.0313	3.4505	10.8777	1.0000	0.0000	0.0000
5.0313	3.4505	11.3837	1.0000	0.0000	0.0000
5.0313	3.4505	11.8896	1.0000	0.0000	0.0000
5.0313	3.9676	0.2530	1.0000	0.0000	0.0000
5.0313	3.9676	0.7589	1.0000	0.0000	0.0000
5.0313	3.9676	1.2649	1.0000	0.0000	0.0000
5.0313	3.9676	1.7708	1.0000	0.0000	0.0000
5.0313	3.9676	2.2767	1.0000	0.0000	0.0000
5.0313	3.9676	2.7827	1.0000	0.0000	0.0000
5.0313	3.9676	3.2886	1.0000	0.0000	0.0000
5.0313	3.9676	3.7946	1.0000	0.0000	0.0000
5.0313	3.9676	4.3005	1.0000	0.0000	0.0000
5.0313	3.9676	4.8064	1.0000	0.0000	0.0000
5.0313	3.9676	5.3124	1.0000	0.0000	0.0000
5.0313	3.9676	5.8183	1.0000	0.0000	0.0000
5.0313	3.9676	6.3243	1.0000	0.0000	0.0000
5.0313	3.9676	6.8302	1.0000	0.0000	0.0000
5.0313	3.9676	7.3361	1.0000	0.0000	0.0000
5.0313	3.9676	7.8421	1.0000	0.0000	0.0000
5.0313	3.9676	8.3480	1.0000	0.0000	0.0000
5.0313	3.9676	8.8540	1.0000	0.0000	0.0000
5.0313	3.9676	9.3599	1.0000	0.0000	0.0000
5.0313	3.9676	9.8658	1.0000	0.0000	0.0000
5.0313	3.9676	10.3718	1.0000	0.0000	0.0000
5.0313	3.9676	10.8777	1.0000	0.0000	0.0000
5.0313	3.9676	11.3837	1.0000	0.0000	0.0000
5.0313	3.9676	11.8896	1.0000	0.0000	0.0000
5.0313	4.4846	0.2530	1.0000	0.0000	0.0000
5.0313	4.4846	0.7589	1.0000	0.0000	0.0000
5.0313	4.4846	1.2649	1.0000	0.0000	0.0000
5.0313	4.4846	1.7708	1.0000	0.0000	0.0000
5.0313	4.4846	2.2767	1.0000	0.0000	0.0000
5.0313	4.4846	2.7827	1.0000	0.0000	0.0000
5.0313	4.4846	3.2886	1.0000	0.0000	0.0000
5.0313	4.4846	3.7946	1.0000	0.0000	0.0000
5.0313	4.4846	4.3005	1.0000	0.0000	0.0000
5.0313	4.4846	4.8064	1.0000	0.0000	0.0000
5.0313	4.4846	5.3124	1.0000	0.0000	0.0000
5.0313	4.4846	5.8183	1.0000	0.0000	0.0000
5.0313	4.4846	6.3243	1.0000	0.0000	0.0000
5.0313	4.4846	6.8302	1.0000	0.0000	0.0000
5.0313	4.4846	7.3361	1.0000	0.0000	0.0000
5.0313	4.4846	7.8421	1.0000	0.0000	0.0000
5.0313	4.4846	8.3480	1.0000	0.0000	0.0000
5.0313	4.4846	8.8540	1.0000	0.0000	0.0000
5.0313	4.4846	9.3599	1.0000	0.0000	0.0000
5.0313	4.4846	9.8658	1.0000	0.0000	0.0000
5.0313	4.4846	10.3718	1.0000	0.0000	0.0000
5.0313	4.4846	10.8777	1.0000	0.0000	0.0000
5.0313	4.4846	11.3837	1.0000	0.0000	0.0000
5.0313	4.4846	11.8896	1.0000	0.0000	0.0000
5.0313	5.0017	0.2530	1.0000	0.0000	0.0000
5.0313	5.0017	0.7589	1.0000	0.0000	0.0000
5.0313	5.0017	1.2649	1.0000	0.0000	0.0000
5.0313	5.0017	1.7708	1.0000	0.0000	0.0000
5.0313	5.0017	2.2767	1.0000	0.0000	0.0000
5.0313	5.0017	2.7827	1.0000	0.0000	0.0000
5.0313	5.0017	3.2886	1.0000	0.0000	0.0000
5.0313	5.0017	3.7946	1.0000	0.0000	0.0000
5.0313	5.0017	4.3005	1.0000	0.0000	0.0000
5.0313	5.0017	4.8064	1.0000	0.0000	0.0000
5.0313	5.0017	5.3124	1.0000	0.0000	0.0000
5.0313	5.0017	5.8183	1.0000	0.0000	0.0000
5.0313	5.0017	6.3243	1.0000	0.0000	0.0000
5.0313	5.0017	6.8302	1.0000	0.0000	0.0000
5.0313	5.0017	7.3361	1.0000	0.0000	0.0000
5.0313	5.0017	7.8421	1.0000	0.0000	0.0000
5.0313	5.0017	8.3480	1.0000	0.0000	0.0000
5.0313	5.0017	8.8540	1.0000	0.0000	0.0000
5.0313	5.0017	9.3599	1.0000	0.0000	0.0000
5.0313	5.0017	9.8658	1.0000	0.0000	0.0000
5.0313	5.0017	10.3718	1.0000	0.0000	0.0000
5.0313	5.0017	10.8777	1.0000	0.0000	0.0000
5.0313	5.0017	11.3837	1.0000	0.0000	0.0000
5.0313	5.0017	11.8896	1.0000	0.0000	0.0000
5.0313	5.5187	0.2530	1.0000	0.0000	0.0000
5.0313	5.5187	0.7589	1.0000	0.0000	0.0000
5.0313	5.5187	1.2649	1.0000	0.0000	0.0000
5.0313	5.5187	1.7708	1.0000	0.0000	0.0000
5.0313	5.5187	2.2767	1.0000	0.0000	0.0000
5.0313	5.5187	2.7827	1.0000	0.0000	0.0000
5.0313	5.5187	3.2886	1.0000	0.0000	0.0000
5.0313	5.5187	3.7946	1.0000	0.0000	0.0000
5.0313	5.5187	4.3005	1.0000	0.0000	0.0000
5.0313	5.5187	4.8064	1.0000	0.0000	0.0000
5.0313	5.5187	5.3124	1.0000	0.0000	0.0000
5.0313	5.5187	5.8183	1.0000	0.0000	0.0000
5.0313	5.5187	6.3243	1.0000	0.0000	0.0000
5.0313	5.5187	6.8302	1.0000	0.0000	0.0000
5.0313	5.5187	7.3361	1.0000	0.0000	0.0000
5.0313	5.5187	7.8421	1.0000	0.0000	0.0000
5.0313	5.5187	8.3480	1.0000	0.0000	0.0000
5.0313	5.5187	8.8540	1.0000	0.0000	0.0000
5.0313	5.5187	9.3599	1.0000	0.0000	0.0000
5.0313	5.5187	9.8658	1.0000	0.0000	0.0000
5.0313	5.5187	10.3718	1.0000	0.0000	0.0000
5.0313	5.5187	10.8777	1.0000	0.0000	0.0000
5.0313	5.5187	11.3837	1.0000	0.0000	0.0000
5.0313	5.5187	11.8896	1.0000	0.0000	0.0000
5.0313	6.0357	0.2530	1.0000	0.0000	0.0000
5.0313	6.0357	0.7589	1.0000	0.0000	0.0000
5.0313	6.0357	1.2649	1.0000	0.0000	0.0000
5.0313	6.0357	1.7708	1.0000	0.0000	0.0000
5.0313	6.0357	2.2767	1.0000	0.0000	0.0000
5.0313	6.0357	2.7827	1.0000	0.0000	0.0000
5.0313	6.0357	3.2886	1.0000	0.0000	0.0000
5.0313	6.0357	3.7946	1.0000	0.0000	0.0000
5.0313	6.0357	4.3005	1.0000	0.0000	0.0000
5.0313	6.0357	4.8064	1.0000	0.0000	0.0000
5.0313	6.0357	5.3124	1.0000	0.0000	0.0000
5.0313	6.0357	5.8183	1.0000	0.0000	0.0000
5.0313	6.0357	6.3243	1.0000	0.0000	0.0000
5.0313	6.0357	6.8302	1.0000	0.0000	0.0000
5.0313	6.0357	7.3361	1.0000	0.0000	0.0000
5.0313	6.0357	7.8421	1.0000	0.0000	0.0000
5.0313	6.0357	8.3480	1.0000	0.0000	0.0000
5.0313	6.0357	8.8540	1.0000	0.0000	0.0000
5.0313	6.0357	9.3599	1.0000	0.0000	0.0000
5.0313	6.0357	9.8658	1.0000	0.0000	0.0000
5.0313	6.0357	10.3718	1.0000	0.0000	0.0000
5.0313	6.0357	10.8777	1.0000	0.0000	0.0000
5.0313	6.0357	11.3837	1.0000	0.0000	0.0000
5.0313	6.0357	11.8896	1.0000	0.0000	0.0000
5.0313	6.5528	0.2530	1.0000	0.0000	0.0000
5.0313	6.5528	0.7589	1.0000	0.0000	0.0000
5.0313	6.5528	1.2649	1.0000	0.0000	0.0000
5.0313	6.5528	1.7708	1.0000	0.0000	0.0000
5.0313	6.5528	2.2767	1.0000	0.0000	0.0000
5.0313	6.5528	2.7827	1.0000	0.0000	0.0000
5.0313	6.5528	3.2886	1.0000	0.0000	0.0000
5.0313	6.5528	3.7946	1.0000	0.0000	0.0000
5.0313	6.5528	4.3005	1.0000	0.0000	0.0000
5.0313	6.5528	4.8064	1.0000	0.0000	0.0000
5.0313	6.5528	5.3124	1.0000	0.0000	0.0000
5.0313	6.5528	5.8183	1.0000	0.0000	0.0000
5.0313	6.5528	6.3243	1.0000	0.0000	0.0000
5.0313	6.5528	6.8302	1.0000	0.0000	0.0000
5.0313	6.5528	7.3361	1.0000	0.0000	0.0000
5.0313	6.5528	7.8421	1.0000	0.0000	0.0000
5.0313	6.5528	8.3480	1.0000	0.0000	0.0000
5.0313	6.5528	8.8540	1.0000	0.0000	0.0000
5.0313	6.5528	9.3599	1.0000	0.0000	0.0000
5.0313	6.5528	9.8658	1.0000	0.0000	0.0000
5.0313	6.5528	10.3718	1.0000	0.0000	0.0000
5.0313	6.5528	10.8777	1.0000	0.0000	0.0000
5.0313	6.5528	11.3837	1.0000	0.0000	0.0000
5.0313	6.5528	11.8896	1.0000	0.0000	0.0000
4.6802	6.9113	0.2530	0.0000	1.0000	0.0000
4.6802	6.9113	0.7589	0.0000	1.0000	0.0000
4.6802	6.9113	1.2649	0.0000	1.0000	0.0000
4.6802	6.9113	1.7708	0.0000	1.0000	0.0000
4.6802	6.9113	2.2767	0.0000	1.0000	0.0000
4.6802	6.9113	2.7827	0.0000	1.0000	0.0000
4.6802	6.9113	3.2886	0.0000	1.0000	0.0000
4.6802	6.9113	3.7946	0.0000	1.0000	0.0000
4.6802	6.9113	4.3005	0.0000	1.0000	0.0000
4.6802	6.9113	4.8064	0.0000	1.0000	0.0000
4.6802	6.9113	5.3124	0.0000	1.0000	0.0000
4.6802	6.9113	5.8183	0.0000	1.0000	0.0000
4.6802	6.9113	6.3243	0.0000	1.0000	0.0000
4.6802	6.9113	6.8302	0.0000	1.0000	0.0000
4.6802	6.9113	7.3361	0.0000	1.0000	0.0000
4.6802	6.9113	7.8421	0.0000	1.0000	0.0000
4.6802	6.9113	8.3480	0.0000	1.0000	0.0000
4.6802	6.9113	8.8540	0.0000	1.0000	0.0000
4.6802	6.9113	9.3599	0.0000	1.0000	0.0000
4.6802	6.9113	9.8658	0.0000	1.0000	0.0000
4.6802	6.9113	10.3718	0.0000	1.0000	0.0000
4.6802	6.9113	10.8777	0.0000	1.0000	0.0000
4.6802	6.9113	11.3837	0.0000	1.0000	0.0000
4.6802	6.9113	11.8896	0.0000	1.0000	0.0000
4.1779	6.9113	0.2530	0.0000	1.0000	0.0000
4.1779	6.9113	0.7589	0.0000	1.0000	0.0000
4.1779	6.9113	1.2649	0.0000	1.0000	0.0000
4.1779	6.9113	1.7708	0.0000	1.0000	0.0000
4.1779	6.9113	2.2767	0.0000	1.0000	0.0000
4.1779	6.9113	2.7827	0.0000	1.0000	0.0000
4.1779	6.9113	3.2886	0.0000	1.0000	0.0000
4.1779	6.9113	3.7946	0.0000	1.0000	0.0000
4.1779	6.9113	4.3005	0.0000	1.0000	0.0000
4.1779	6.9113	4.8064	0.0000	1.0000	0.0000
4.1779	6.9113	5.3124	0.0000	1.0000	0.0000
4.1779	6.9113	5.8183	0.0000	1.0000	0.0000
4.1779	6.9113	6.3243	0.0000	1.0000	0.0000
4.1779	6.9113	6.8302	0.0000	1.0000	0.0000
4.1779	6.9113	7.3361	0.0000	1.0000	0.0000
4.1779	6.9113	7.8421	0.0000	1.0000	0.0000
4.1779	6.9113	8.3480	0.0000	1.0000	0.0000
4.1779	6.9113	8.8540	0.0000	1.0000	0.0000
4.1779	6.9113	9.3599	0.0000	1.0000	0.0000
4.1779	6.9113	9.8658	0.0000	1.0000	0.0000
4.1779	6.9113	10.3718	0.0000	1.0000	0.0000
4.1779	6.9113	10.8777	0.0000	1.0000	0.0000
4.1779	6.9113	11.3837	0.0000	1.0000	0.0000
4.1779	6.9113	11.8896	0.0000	1.0000	0.0000
3.6756	6.9113	0.2530	0.0000	1.0000	0.0000
3.6756	6.9113	0.7589	0.0000	1.0000	0.0000
3.6756	6.9113	1.2649	0.0000	1.0000	0.0000
3.6756	6.9113	1.7708	0.0000	1.0000	0.0000
3.6756	6.9113	2.2767	0.0000	1.0000	0.0000
3.6756	6.9113	2.7827	0.0000	1.0000	0.0000
3.6756	6.9113	3.2886	0.0000	1.0000	0.0000
3.6756	6.9113	3.7946	0.0000	1.0000	0.0000
3.6756	6.9113	4.3005	0.0000	1.0000	0.0000
3.6756	6.9113	4.8064	0.0000	1.0000	0.0000
3.6756	6.9113	5.3124	0.0000	1.0000	0.0000
3.6756	6.9113	5.8183	0.0000	1.0000	0.0000
3.6756	6.9113	6.3243	0.0000	1.0000	0.0000
3.6756	6.9113	6.8302	0.0000	1.0000	0.0000
3.6756	6.9113	7.3361	0.0000	1.0000	0.0000
3.6756	6.9113	7.8421	0.0000	1.0000	0.0000
3.6756	6.9113	8.3480	0.0000	1.0000	0.0000
3.6756	6.9113	8.8540	0.0000	1.0000	0.0000
3.6756	6.9113	9.3599	0.0000	1.0000	0.0000
3.6756	6.9113	9.8658	0.0000	1.0000	0.0000
3.6756	6.9113	10.3718	0.0000	1.0000	0.0000
3.6756	6.9113	10.8777	0.0000	1.0000	0.0000
3.6756	6.9113	11.3837	0.0000	1.0000	0.0000
3.6756	6.9113	11.8896	0.0000	1.0000	0.0000
3.1733	6.9113	0.2530	0.0000	1.0000	0.0000
3.1733	6.9113	0.7589	0.0000	1.0000	0.0000
3.1733	6.9113	1.2649	0.0000	1.0000	0.0000
3.1733	6.9113	1.7708	0.0000	1.0000	0.0000
3.1733	6.9113	2.2767	0.0000	1.0000	0.0000
3.1733	6.9113	2.7827	0.0000	1.0000	0.0000
3.1733	6.9113	3.2886	0.0000	1.0000	0.0000
3.1733	6.9113	3.7946	0.0000	1.0000	0.0000
3.1733	6.9113	4.3005	0.0000	1.0000	0.0000
3.1733	6.9113	4.8064	0.0000	1.0000	0.0000
3.1733	6.9113	5.3124	0.0000	1.0000	0.0000
3.1733	6.9113	5.8183	0.0000	1.0000	0.0000
3.1733	6.9113	6.3243	0.0000	1.0000	0.0000
3.1733	6.9113	6.8302	0.0000	1.0000	0.0000
3.1733	6.9113	7.3361	0.0000	1.0000	0.0000
3.1733	6.9113	7.8421	0.0000	1.0000	0.0000
3.1733	6.9113	8.3480	0.0000	1.0000	0.0000
3.1733	6.9113	8.8540	0.0000	1.0000	0.0000
3.1733	6.9113	9.3599	0.0000	1.0000	0.0000
3.1733	6.9113	9.8658	0.0000	1.0000	0.0000
3.1733	6.9113	10.3718	0.0000	1.0000	0.0000
3.1733	6.9113	10.8777	0.0000	1.0000	0.0000
3.1733	6.9113	11.3837	0.0000	1.0000	0.0000
3.1733	6.9113	11.8896	0.0000	1.0000	0.0000
2.6710	6.9113	0.2530	0.0000	1.0000	0.0000
2.6710	6.9113	0.7589	0.0000	1.0000	0.0000
2.6710	6.9113	1.2649	0.0000	1.0000	0.0000
2.6710	6.9113	1.7708	0.0000	1.0000	0.0000
2.6710	6.9113	2.2767	0.0000	1.0000	0.0000
2.6710	6.9113	2.7827	0.0000	1.0000	0.0000
2.6710	6.9113	3.2886	0.0000	1.0000	0.0000
2.6710	6.9113	3.7946	0.0000	1.0000	0.0000
2.6710	6.9113	4.3005	0.0000	1.0000	0.0000
2.6710	6.9113	4.8064	0.0000	1.0000	0.0000
2.6710	6.9113	5.3124	0.0000	1.0000	0.0000
2.6710	6.9113	5.8183	0.0000	1.0000	0.0000
2.6710	6.9113	6.3243	0.0000	1.0000	0.0000
2.6710	6.9113	6.8302	0.0000	1.0000	0.0000
2.6710	6.9113	7.3361	0.0000	1.0000	0.0000
2.6710	6.9113	7.8421	0.0000	1.0000	0.0000
2.6710	6.9113	8.3480	0.0000	1.0000	0.0000
2.6710	6.9113	8.8540	0.0000	1.0000	0.0000
2.6710	6.9113	9.3599	0.0000	1.0000	0.0000
2.6710	6.9113	9.8658	0.0000	1.0000	0.0000
2.6710	6.9113	10.3718	0.0000	1.0000	0.0000
2.6710	6.9113	10.8777	0.0000	1.0000	0.0000
2.6710	6.9113	11.3837	0.0000	1.0000	0.0000
2.6710	6.9113	11.8896	0.0000	1.0000	0.0000
2.1687	6.9113	0.2530	0.0000	1.0000	0.0000
2.1687	6.9113	0.7589	0.0000	1.0000	0.0000
2.1687	6.9113	1.2649	0.0000	1.0000	0.0000
2.1687	6.9113	1.7708	0.0000	1.0000	0.0000
2.1687	6.9113	2.2767	0.0000	1.0000	0.0000
2.1687	6.9113	2.7827	0.0000	1.0000	0.0000
2.1687	6.9113	3.2886	0.0000	1.0000	0.0000
2.1687	6.9113	3.7946	0.0000	1.0000	0.0000
2.1687	6.9113	4.3005	0.0000	1.0000	0.0000
2.1687	6.9113	4.8064	0.0000	1.0000	0.0000
2.1687	6.9113	5.3124	0.0000	1.0000	0.0000
2.1687	6.9113	5.8183	0.0000	1.0000	0.0000
2.1687	6.9113	6.3243	0.0000	1.0000	0.0000
2.1687	6.9113	6.8302	0.0000	1.0000	0.0000
2.1687	6.9113	7.3361	0.0000	1.0000	0.0000
2.1687	6.9113	7.8421	0.0000	1.0000	0.0000
2.1687	6.9113	8.3480	0.0000	1.0000	0.0000
2.1687	6.9113	8.8540	0.0000	1.0000	0.0000
2.1687	6.9113	9.3599	0.0000	1.0000	0.0000
2.1687	6.9113	9.8658	0.0000	1.0000	0.0000
2.1687	6.9113	10.3718	0.0000	1.0000	0.0000
2.1687	6.9113	10.8777	0.0000	1.0000	0.0000
2.1687	6.9113	11.3837	0.0000	1.0000	0.0000
2.1687	6.9113	11.8896	0.0000	1.0000	0.0000
1.6663	6.9113	0.2530	0.0000	1.0000	0.0000
1.6663	6.9113	0.7589	0.0000	1.0000	0.0000
1.6663	6.9113	1.2649	0.0000	1.0000	0.0000
1.6663	6.9113	1.7708	0.0000	1.0000	0.0000
1.6663	6.9113	2.2767	0.0000	1.0000	0.0000
1.6663	6.9113	2.7827	0.0000	1.0000	0.0000
1.6663	6.9113	3.2886	0.0000	1.0000	0.0000
1.6663	6.9113	3.7946	0.0000	1.0000	0.0000
1.6663	6.9113	4.3005	0.0000	1.0000	0.0000
1.6663	6.9113	4.8064	0.0000	1.0000	0.0000
1.6663	6.9113	5.3124	0.0000	1.0000	0.0000
1.6663	6.9113	5.8183	0.0000	1.0000	0.0000
1.6663	6.9113	6.3243	0.0000	1.0000	0.0000
1.6663	6.9113	6.8302	0.0000	1.0000	0.0000
1.6663	6.9113	7.3361	0.0000	1.0000	0.0000
1.6663	6.9113	7.8421	0.0000	1.0000	0.0000
1.6663	6.9113	8.3480	0.0000	1.0000	0.0000
1.6663	6.9113	8.8540	0.0000	1.0000	0.0000
1.6663	6.9113	9.3599	0.0000	1.0000	0.0000
1.6663	6.9113	9.8658	0.0000	1.0000	0.0000
1.6663	6.9113	10.3718	0.0000	1.0000	0.0000
1.6663	6.9113	10.8777	0.0000	1.0000	0.0000
1.6663	6.9113	11.3837	0.0000	1.0000	0.0000
1.6663	6.9113	11.8896	0.0000	1.0000	0.0000
1.1640	6.9113	0.2530	0.0000	1.0000	0.0000
1.1640	6.9113	0.7589	0.0000	1.0000	0.0000
1.1640	6.9113	1.2649	0.0000	1.0000	0.0000
1.1640	6.9113	1.7708	0.0000	1.0000	0.0000
1.1640	6.9113	2.2767	0.0000	1.0000	0.0000
1.1640	6.9113	2.7827	0.0000	1.0000	0.0000
1.1640	6.9113	3.2886	0.0000	1.0000	0.0000
1.1640	6.9113	3.7946	0.0000	1.0000	0.0000
1.1640	6.9113	4.3005	0.0000	1.0000	0.0000
1.1640	6.9113	4.8064	0.0000	1.0000	0.0000
1.1640	6.9113	5.3124	0.0000	1.0000	0.0000
1.1640	6.9113	5.8183	0.0000	1.0000	0.0000
1.1640	6.9113	6.3243	0.0000	1.0000	0.0000
1.1640	6.9113	6.8302	0.0000	1.0000	0.0000
1.1640	6.9113	7.3361	0.0000	1.0000	0.0000
1.1640	6.9113	7.8421	0.0000	1.0000	0.0000
1.1640	6.9113	8.3480	0.0000	1.0000	0.0000
1.1640	6.9113	8.8540	0.0000	1.0000	0.0000
1.1640	6.9113	9.3599	0.0000	1.0000	0.0000
1.1640	6.9113	9.8658	0.0000	1.0000	0.0000
1.1640	6.9113	10.3718	0.0000	1.0000	0.0000
1.1640	6.9113	10.8777	0.0000	1.0000	0.0000
1.1640	6.9113	11.3837	0.0000	1.0000	0.0000
1.1640	6.9113	11.8896	0.0000	1.0000	0.0000
0.6617	6.9113	0.2530	0.0000	1.0000	0.0000
0.6617	6.9113	0.7589	0.0000	1.0000	0.0000
0.6617	6.9113	1.2649	0.0000	1.0000	0.0000
0.6617	6.9113	1.7708	0.0000	1.0000	0.0000
0.6617	6.9113	2.2767	0.0000	1.0000	0.0000
0.6617	6.9113	2.7827	0.0000	1.0000	0.0000
0.6617	6.9113	3.2886	0.0000	1.0000	0.0000
0.6617	6.9113	3.7946	0.0000	1.0000	0.0000
0.6617	6.9113	4.3005	0.0000	1.0000	0.0000
0.6617	6.9113	4.8064	0.0000	1.0000	0.0000
0.6617	6.9113	5.3124	0.0000	1.0000	0.0000
0.6617	6.9113	5.8183	0.0000	1.0000	0.0000
0.6617	6.9113	6.3243	0.0000	1.0000	0.0000
0.6617	6.9113	6.8302	0.0000	1.0000	0.0000
0.6617	6.9113	7.3361	0.0000	1.0000	0.0000
0.6617	6.9113	7.8421	0.0000	1.0000	0.0000
0.6617	6.9113	8.3480	0.0000	1.0000	0.0000
0.6617	6.9113	8.8540	0.0000	1.0000	0.0000
0.6617	6.9113	9.3599	0.0000	1.0000	0.0000
0.6617	6.9113	9.8658	0.0000	1.0000	0.0000
0.6617	6.9113	10.3718	0.0000	1.0000	0.0000
0.6617	6.9113	10.8777	0.0000	1.0000	0.0000
0.6617	6.9113	11.3837	0.0000	1.0000	0.0000
0.6617	6.9113	11.8896	0.0000	1.0000	0.0000
0.1594	6.9113	0.2530	0.0000	1.0000	0.0000
0.1594	6.9113	0.7589	0.0000	1.0000	0.0000
0.1594	6.9113	1.2649	0.0000	1.0000	0.0000
0.1594	6.9113	1.7708	0.0000	1.0000	0.0000
0.1594	6.9113	2.2767	0.0000	1.0000	0.0000
0.1594	6.9113	2.7827	0.0000	1.0000	0.0000
0.1594	6.9113	3.2886	0.0000	1.0000	0.0000
0.1594	6.9113	3.7946	0.0000	1.0000	0.0000
0.1594	6.9113	4.3005	0.0000	1.0000	0.0000
0.1594	6.9113	4.8064	0.0000	1.0000	0.0000
0.1594	6.9113	5.3124	0.0000	1.0000	0.0000
0.1594	6.9113	5.8183	0.0000	1.0000	0.0000
0.1594	6.9113	6.3243	0.0000	1.0000	0.0000
0.1594	6.9113	6.8302	0.0000	1.0000	0.0000
0.1594	6.9113	7.3361	0.0000	1.0000	0.0000
0.1594	6.9113	7.8421	0.0000	1.0000	0.0000
0.1594	6.9113	8.3480	0.0000	1.0000	0.0000
0.1594	6.9113	8.8540	0.0000	1.0000	0.0000
0.1594	6.9113	9.3599	0.0000	1.0000	0.0000
0.1594	6.9113	9.8658	0.0000	1.0000	0.0000
0.1594	6.9113	10.3718	0.0000	1.0000	0.0000
0.1594	6.9113	10.8777	0.0000	1.0000	0.0000
0.1594	6.9113	11.3837	0.0000	1.0000	0.0000
0.1594	6.9113	11.8896	0.0000	1.0000	0.0000
-0.3429	6.9113	0.2530	0.0000	1.0000	0.0000
-0.3429	6.9113	0.7589	0.0000	1.0000	0.0000
-0.3429	6.9113	1.2649	0.0000	1.0000	0.0000
-0.3429	6.9113	1.7708	0.0000	1.0000	0.0000
-0.3429	6.9113	2.2767	0.0000	1.0000	0.0000
-0.3429	6.9113	2.7827	0.0000	1.0000	0.0000
-0.3429	6.9113	3.2886	0.0000	1.0000	0.0000
-0.3429	6.9113	3.7946	0.0000	1.0000	0.0000
-0.3429	6.9113	4.3005	0.0000	1.0000	0.0000
-0.3429	6.9113	4.8064	0.0000	1.0000	0.0000
-0.3429	6.9113	5.3124	0.0000	1.0000	0.0000
-0.3429	6.9113	5.8183	0.0000	1.0000	0.0000
-0.3429	6.9113	6.3243	0.0000	1.0000	0.0000
-0.3429	6.9113	6.8302	0.0000	1.0000	0.0000
-0.3429	6.9113	7.3361	0.0000	1.0000	0.0000
-0.3429	6.9113	7.8421	0.0000	1.0000	0.0000
-0.3429	6.9113	8.3480	0.0000	1.0000	0.0000
-0.3429	6.9113	8.8540	0.0000	1.0000	0.0000
-0.3429	6.9113	9.3599	0.0000	1.0000	0.0000
-0.3429	6.9113	9.8658	0.0000	1.0000	0.0000
-0.3429	6.9113	10.3718	0.0000	1.0000	0.0000
-0.3429	6.9113	10.8777	0.0000	1.0000	0.0000
-0.3429	6.9113	11.3837	0.0000	1.0000	0.0000
-0.3429	6.9113	11.8896	0.0000	1.0000	0.0000
-0.8452	6.9113	0.2530	0.0000	1.0000	0.0000
-0.8452	6.9113	0.7589	0.0000	1.0000	0.0000
-0.8452	6.9113	1.2649	0.0000	1.0000	0.0000
-0.8452	6.9113	1.7708	0.0000	1.0000	0.0000
-0.8452	6.9113	2.2767	0.0000	1.0000	0.0000
-0.8452	6.9113	2.7827	0.0000	1.0000	0.0000
-0.8452	6.9113	3.2886	0.0000	1.0000	0.0000
-0.8452	6.9113	3.7946	0.0000	1.0000	0.0000
-0.8452	6.9113	4.3005	0.0000	1.0000	0.0000
-0.8452	6.9113	4.8064	0.0000	1.0000	0.0000
-0.8452	6.9113	5.3124	0.0000	1.0000	0.0000
-0.8452	6.9113	5.8183	0.0000	1.0000	0.0000
-0.8452	6.9113	6.3243	0.0000	1.0000	0.0000
-0.8452	6.9113	6.8302	0.0000	1.0000	0.0000
-0.8452	6.9113	7.3361	0.0000	1.0000	0.0000
-0.8452	6.9113	7.8421	0.0000	1.0000	0.0000
-0.8452	6.9113	8.3480	0.0000	1.0000	0.0000
-0.8452	6.9113	8.8540	0.0000	1.0000	0.0000
-0.8452	6.9113	9.3599	0.0000	1.0000	0.0000
-0.8452	6.9113	9.8658	0.0000	1.0000	0.0000
-0.8452	6.9113	10.3718	0.0000	1.0000	0.0000
-0.8452	6.9113	10.8777	0.0000	1.0000	0.0000
-0.8452	6.9113	11.3837	0.0000	1.0000	0.0000
-0.8452	6.9113	11.8896	0.0000	1.0000	0.0000
-1.3475	6.9113	0.2530	0.0000	1.0000	0.0000
-1.3475	6.9113	0.7589	0.0000	1.0000	0.0000
-1.3475	6.9113	1.2649	0.0000	1.0000	0.0000
-1.3475	6.9113	1.7708	0.0000	1.0000	0.0000
-1.3475	6.9113	2.2767	0.0000	1.0000	0.0000
-1.3475	6.9113	2.7827	0.0000	1.0000	0.0000
-1.3475	6.9113	3.2886	0.0000	1.0000	0.0000
-1.3475	6.9113	3.7946	0.0000	1.0000	0.0000
-1.3475	6.9113	4.3005	0.0000	1.0000	0.0000
-1.3475	6.9113	4.8064	0.0000	1.0000	0.0000
-1.3475	6.9113	5.3124	0.0000	1.0000	0.0000
-1.3475	6.9113	5.8183	0.0000	1.0000	0.0000
-1.3475	6.9113	6.3243	0.0000	1.0000	0.0000
-1.3475	6.9113	6.8302	0.0000	1.0000	0.0000
-1.3475	6.9113	7.3361	0.0000	1.0000	0.0000
-1.3475	6.9113	7.8421	0.0000	1.0000	0.0000
-1.3475	6.9113	8.3480	0.0000	1.0000	0.0000
-1.3475	6.9113	8.8540	0.0000	1.0000	0.0000
-1.3475	6.9113	9.3599	0.0000	1.0000	0.0000
-1.3475	6.9113	9.8658	0.0000	1.0000	0.0000
-1.3475	6.9113	10.3718	0.0000	1.0000	0.0000
-1.3475	6.9113	10.8777	0.0000	1.0000	0.0000
-1.3475	6.9113	11.3837	0.0000	1.0000	0.0000
-1.3475	6.9113	11.8896	0.0000	1.0000	0.0000
-1.8498	6.9113	0.2530	0.0000	1.0000	0.0000
-1.8498	6.9113	0.7589	0.0000	1.0000	0.0000
-1.8498	6.9113	1.2649	0.0000	1.0000	0.0000
-1.8498	6.9113	1.7708	0.0000	1.0000	0.0000
-1.8498	6.9113	2.2767	0.0000	1.0000	0.0000
-1.8498	6.9113	2.7827	0.0000	1.0000	0.0000
-1.8498	6.9113	3.2886	0.0000	1.0000	0.0000
-1.8498	6.9113	3.7946	0.0000	1.0000	0.0000
-1.8498	6.9113	4.3005	0.0000	1.0000	0.0000
-1.8498	6.9113	4.8064	0.0000	1.0000	0.0000
-1.8498	6.9113	5.3124	0.0000	1.0000	0.0000
-1.8498	6.9113	5.8183	0.0000	1.0000	0.0000
-1.8498	6.9113	6.3243	0.0000	1.0000	0.0000
-1.8498	6.9113	6.8302	0.0000	1.0000	0.0000
-1.8498	6.9113	7.3361	0.0000	1.0000	0.0000
-1.8498	6.9113	7.8421	0.0000	1.0000	0.0000
-1.8498	6.9113	8.3480	0.0000	1.0000	0.0000
-1.8498	6.9113	8.8540	0.0000	1.0000	0.0000
-1.8498	6.9113	9.3599	0.0000	1.0000	0.0000
-1.8498	6.9113	9.8658	0.0000	1.0000	0.0000
-1.8498	6.9113	10.3718	0.0000	1.0000	0.0000
-1.8498	6.9113	10.8777	0.0000	1.0000	0.0000
-1.8498	6.9113	11.3837	0.0000	1.0000	0.0000
-1.8498	6.9113	11.8896	0.0000	1.0000	0.0000
-2.3521	6.9113	0.2530	0.0000	1.0000	0.0000
-2.3521	6.9113	0.7589	0.0000	1.0000	0.0000
-2.3521	6.9113	1.2649	0.0000	1.0000	0.0000
-2.3521	6.9113	1.7708	0.0000	1.0000	0.0000
-2.3521	6.9113	2.2767	0.0000	1.0000	0.0000
-2.3521	6.9113	2.7827	0.0000	1.0000	0.0000
-2.3521	6.9113	3.2886	0.0000	1.0000	0.0000
-2.3521	6.9113	3.7946	0.0000	1.0000	0.0000
-2.3521	6.9113	4.3005	0.0000	1.0000	0.0000
-2.3521	6.9113	4.8064	0.0000	1.0000	0.0000
-2.3521	6.9113	5.3124	0.0000	1.0000	0.0000
-2.3521	6.9113	5.8183	0.0000	1.0000	0.0000
-2.3521	6.9113	6.3243	0.0000	1.0000	0.0000
-2.3521	6.9113	6.8302	0.0000	1.0000	0.0000
