593.3275756835938 498.9164428710938 113.3000030517578 -0.9984058737754822 0.05644229799509049 0
593.3275756835938 498.9164428710938 113.8000030517578 -0.9984058737754822 0.05644229799509049 0
593.3275756835938 498.9164428710938 114.3000030517578 -0.9984058737754822 0.05644229799509049 0
593.3275756835938 498.9164428710938 114.8000030517578 -0.9984058737754822 0.05644229799509049 0
593.2998657226563 498.4266052246094 112.8000030517578 -0.9984058737754822 0.05644229799509049 0
593.2998657226563 498.4266052246094 113.3000030517578 -0.9984058737754822 0.05644229799509049 0
593.2998657226563 498.4266052246094 113.8000030517578 -0.9984058737754822 0.05644229799509049 0
593.2998657226563 498.4266052246094 114.3000030517578 -0.9984058737754822 0.05644229799509049 0
593.2998657226563 498.4266052246094 114.8000030517578 -0.9984058737754822 0.05644229799509049 0
593.272216796875 497.936767578125 112.8000030517578 -0.9984058737754822 0.05644229799509049 0
593.272216796875 497.936767578125 114.8000030517578 -0.9984058737754822 0.05644229799509049 0
593.4937133789063 501.8555297851563 114.466667175293 -0.9984058737754822 0.05644229799509049 0
593.4937133789063 501.8555297851563 114.1333312988281 -0.9984058737754822 0.05644229799509049 0
593.4937133789063 501.8555297851563 113.8000030517578 -0.9984058737754822 0.05644229799509049 0
593.4937133789063 501.8555297851563 113.466667175293 -0.9984058737754822 0.05644229799509049 0
593.4937133789063 501.8555297851563 113.1333312988281 -0.9984058737754822 0.05644229799509049 0
593.272216796875 497.936767578125 113.1333312988281 -0.9984058737754822 0.05644229799509049 0
593.272216796875 497.936767578125 113.466667175293 -0.9984058737754822 0.05644229799509049 0
593.272216796875 497.936767578125 113.8000030517578 -0.9984058737754822 0.05644229799509049 0
593.272216796875 497.936767578125 114.1333312988281 -0.9984058737754822 0.05644229799509049 0
593.272216796875 497.936767578125 114.466667175293 -0.9984058737754822 0.05644229799509049 0
593.272216796875 497.936767578125 112.8000030517578 0.05644232407212257 0.9984058737754822 0
593.272216796875 497.936767578125 114.8000030517578 0.05644232407212257 0.9984058737754822 0
592.8193359375 497.9623413085938 112.8000030517578 0.05644232407212257 0.9984058737754822 7.495147216632705e-15
592.8193359375 497.9623413085938 113.3000030517578 0.05644232407212257 0.9984058737754822 7.495147216632705e-15
592.8193359375 497.9623413085938 113.8000030517578 0.05644232407212257 0.9984058737754822 7.495147216632705e-15
592.8193359375 497.9623413085938 114.3000030517578 0.05644232407212257 0.9984058737754822 7.495147216632705e-15
592.8193359375 497.9623413085938 114.8000030517578 0.05644232407212257 0.9984058737754822 7.495147216632705e-15
592.3665161132813 497.9879455566406 112.8000030517578 0.05644232407212257 0.9984058737754822 -1.579238720047019e-14
592.3665161132813 497.9879455566406 113.3000030517578 0.05644232407212257 0.9984058737754822 -1.579238720047019e-14
592.3665161132813 497.9879455566406 113.8000030517578 0.05644232407212257 0.9984058737754822 -1.579238720047019e-14
592.3665161132813 497.9879455566406 114.3000030517578 0.05644232407212257 0.9984058737754822 -1.579238720047019e-14
592.3665161132813 497.9879455566406 114.8000030517578 0.05644232407212257 0.9984058737754822 -1.579238720047019e-14
591.9136352539063 498.0135498046875 112.8000030517578 0.05644232407212257 0.9984058737754822 0
591.9136352539063 498.0135498046875 113.3000030517578 0.05644232407212257 0.9984058737754822 0
591.9136352539063 498.0135498046875 113.8000030517578 0.05644232407212257 0.9984058737754822 0
591.9136352539063 498.0135498046875 114.3000030517578 0.05644232407212257 0.9984058737754822 0
591.9136352539063 498.0135498046875 114.8000030517578 0.05644232407212257 0.9984058737754822 0
591.4608154296875 498.0391540527344 112.8000030517578 0.05644232407212257 0.9984058737754822 2.837640163805538e-14
591.4608154296875 498.0391540527344 113.3000030517578 0.05644232407212257 0.9984058737754822 2.837640163805538e-14
591.4608154296875 498.0391540527344 113.8000030517578 0.05644232407212257 0.9984058737754822 2.837640163805538e-14
591.4608154296875 498.0391540527344 114.3000030517578 0.05644232407212257 0.9984058737754822 2.837640163805538e-14
591.4608154296875 498.0391540527344 114.8000030517578 0.05644232407212257 0.9984058737754822 2.837640163805538e-14
591.0079345703125 498.0647583007813 112.8000030517578 0.05644232407212257 0.9984058737754822 -1.604187334354565e-15
591.0079345703125 498.0647583007813 113.3000030517578 0.05644232407212257 0.9984058737754822 -1.604187334354565e-15
591.0079345703125 498.0647583007813 113.8000030517578 0.05644232407212257 0.9984058737754822 -1.604187334354565e-15
591.0079345703125 498.0647583007813 114.3000030517578 0.05644232407212257 0.9984058737754822 -1.604187334354565e-15
591.0079345703125 498.0647583007813 114.8000030517578 0.05644232407212257 0.9984058737754822 -1.604187334354565e-15
590.5551147460938 498.0903625488281 112.8000030517578 0.05644232407212257 0.9984058737754822 -1.604187334354565e-15
590.5551147460938 498.0903625488281 113.3000030517578 0.05644232407212257 0.9984058737754822 -1.604187334354565e-15
590.5551147460938 498.0903625488281 113.8000030517578 0.05644232407212257 0.9984058737754822 -1.604187334354565e-15
590.5551147460938 498.0903625488281 114.3000030517578 0.05644232407212257 0.9984058737754822 -1.604187334354565e-15
590.5551147460938 498.0903625488281 114.8000030517578 0.05644232407212257 0.9984058737754822 -1.604187334354565e-15
590.1022338867188 498.115966796875 112.8000030517578 0.05644232407212257 0.9984058737754822 0
590.1022338867188 498.115966796875 114.8000030517578 0.05644232407212257 0.9984058737754822 0
593.272216796875 497.936767578125 114.466667175293 0.05644232407212257 0.9984058737754822 0
593.272216796875 497.936767578125 114.1333312988281 0.05644232407212257 0.9984058737754822 0
593.272216796875 497.936767578125 113.8000030517578 0.05644232407212257 0.9984058737754822 0
593.272216796875 497.936767578125 113.466667175293 0.05644232407212257 0.9984058737754822 0
593.272216796875 497.936767578125 113.1333312988281 0.05644232407212257 0.9984058737754822 0
590.1022338867188 498.115966796875 113.1333312988281 0.05644232407212257 0.9984058737754822 0
590.1022338867188 498.115966796875 113.466667175293 0.05644232407212257 0.9984058737754822 0
590.1022338867188 498.115966796875 113.8000030517578 0.05644232407212257 0.9984058737754822 0
590.1022338867188 498.115966796875 114.1333312988281 0.05644232407212257 0.9984058737754822 0
590.1022338867188 498.115966796875 114.466667175293 0.05644232407212257 0.9984058737754822 0
590.1022338867188 498.115966796875 112.8000030517578 -0.9984058737754822 0.0564425140619278 0
590.1022338867188 498.115966796875 114.8000030517578 -0.9984058737754822 0.0564425140619278 0
590.076171875 497.6542358398438 112.8000030517578 -0.9984058737754822 0.0564425140619278 0
590.076171875 497.6542358398438 114.8000030517578 -0.9984058737754822 0.0564425140619278 0
590.050048828125 497.1925354003906 112.8000030517578 -0.9984058737754822 0.0564425140619278 0
590.050048828125 497.1925354003906 114.8000030517578 -0.9984058737754822 0.0564425140619278 0
590.1022338867188 498.115966796875 114.466667175293 -0.9984058737754822 0.0564425140619278 0
590.1022338867188 498.115966796875 114.1333312988281 -0.9984058737754822 0.0564425140619278 0
590.1022338867188 498.115966796875 113.8000030517578 -0.9984058737754822 0.0564425140619278 0
590.1022338867188 498.115966796875 113.466667175293 -0.9984058737754822 0.0564425140619278 0
590.1022338867188 498.115966796875 113.1333312988281 -0.9984058737754822 0.0564425140619278 0
590.050048828125 497.1925354003906 113.1333312988281 -0.9984058737754822 0.0564425140619278 0
590.050048828125 497.1925354003906 113.466667175293 -0.9984058737754822 0.0564425140619278 0
590.050048828125 497.1925354003906 113.8000030517578 -0.9984058737754822 0.0564425140619278 0
590.050048828125 497.1925354003906 114.1333312988281 -0.9984058737754822 0.0564425140619278 0
590.050048828125 497.1925354003906 114.466667175293 -0.9984058737754822 0.0564425140619278 0
590.076171875 497.6542358398438 113.8000030517578 -0.9984058737754822 0.0564425140619278 0
590.076171875 497.6542358398438 114.3000030517578 -0.9984058737754822 0.0564425140619278 0
590.050048828125 497.1925354003906 112.8000030517578 0.0564425140619278 0.9984058737754822 0
590.050048828125 497.1925354003906 114.8000030517578 0.0564425140619278 0.9984058737754822 0
589.6107177734375 497.2173767089844 112.8000030517578 0.0564425140619278 0.9984058737754822 5.48990767532424e-15
589.6107177734375 497.2173767089844 113.3000030517578 0.0564425140619278 0.9984058737754822 5.48990767532424e-15
589.6107177734375 497.2173767089844 113.8000030517578 0.0564425140619278 0.9984058737754822 5.48990767532424e-15
589.6107177734375 497.2173767089844 114.3000030517578 0.0564425140619278 0.9984058737754822 5.48990767532424e-15
589.6107177734375 497.2173767089844 114.8000030517578 0.0564425140619278 0.9984058737754822 5.48990767532424e-15
589.1714477539063 497.2421875 112.8000030517578 0.0564425140619278 0.9984058737754822 8.02096367094802e-16
589.1714477539063 497.2421875 113.3000030517578 0.0564425140619278 0.9984058737754822 8.02096367094802e-16
589.1714477539063 497.2421875 113.8000030517578 0.0564425140619278 0.9984058737754822 8.02096367094802e-16
589.1714477539063 497.2421875 114.3000030517578 0.0564425140619278 0.9984058737754822 8.02096367094802e-16
589.1714477539063 497.2421875 114.8000030517578 0.0564425140619278 0.9984058737754822 8.02096367094802e-16
588.732177734375 497.2670288085938 112.8000030517578 0.0564425140619278 0.9984058737754822 1.499029612733131e-14
588.732177734375 497.2670288085938 113.3000030517578 0.0564425140619278 0.9984058737754822 1.499029612733131e-14
588.732177734375 497.2670288085938 113.8000030517578 0.0564425140619278 0.9984058737754822 1.499029612733131e-14
588.732177734375 497.2670288085938 114.3000030517578 0.0564425140619278 0.9984058737754822 1.499029612733131e-14
588.732177734375 497.2670288085938 114.8000030517578 0.0564425140619278 0.9984058737754822 1.499029612733131e-14
588.2928466796875 497.2918701171875 112.8000030517578 0.0564425140619278 0.9984058737754822 1.604192734189604e-15
588.2928466796875 497.2918701171875 113.3000030517578 0.0564425140619278 0.9984058737754822 1.604192734189604e-15
588.2928466796875 497.2918701171875 113.8000030517578 0.0564425140619278 0.9984058737754822 1.604192734189604e-15
588.2928466796875 497.2918701171875 114.3000030517578 0.0564425140619278 0.9984058737754822 1.604192734189604e-15
588.2928466796875 497.2918701171875 114.8000030517578 0.0564425140619278 0.9984058737754822 1.604192734189604e-15
587.8535766601563 497.3167114257813 112.8000030517578 0.0564425140619278 0.9984058737754822 0
587.8535766601563 497.3167114257813 113.3000030517578 0.0564425140619278 0.9984058737754822 0
587.8535766601563 497.3167114257813 113.8000030517578 0.0564425140619278 0.9984058737754822 0
587.8535766601563 497.3167114257813 114.3000030517578 0.0564425140619278 0.9984058737754822 0
587.8535766601563 497.3167114257813 114.8000030517578 0.0564425140619278 0.9984058737754822 0
587.4142456054688 497.341552734375 112.8000030517578 0.0564425140619278 0.9984058737754822 0
587.4142456054688 497.341552734375 113.3000030517578 0.0564425140619278 0.9984058737754822 0
587.4142456054688 497.341552734375 113.8000030517578 0.0564425140619278 0.9984058737754822 0
587.4142456054688 497.341552734375 114.3000030517578 0.0564425140619278 0.9984058737754822 0
587.4142456054688 497.341552734375 114.8000030517578 0.0564425140619278 0.9984058737754822 0
586.9749755859375 497.3663635253906 112.8000030517578 0.0564425140619278 0.9984058737754822 0
586.9749755859375 497.3663635253906 114.8000030517578 0.0564425140619278 0.9984058737754822 0
590.050048828125 497.1925354003906 114.466667175293 0.0564425140619278 0.9984058737754822 0
590.050048828125 497.1925354003906 114.1333312988281 0.0564425140619278 0.9984058737754822 0
590.050048828125 497.1925354003906 113.8000030517578 0.0564425140619278 0.9984058737754822 0
590.050048828125 497.1925354003906 113.466667175293 0.0564425140619278 0.9984058737754822 0
590.050048828125 497.1925354003906 113.1333312988281 0.0564425140619278 0.9984058737754822 0
586.9749755859375 497.3663635253906 113.1333312988281 0.0564425140619278 0.9984058737754822 0
586.9749755859375 497.3663635253906 113.466667175293 0.0564425140619278 0.9984058737754822 0
586.9749755859375 497.3663635253906 113.8000030517578 0.0564425140619278 0.9984058737754822 0
586.9749755859375 497.3663635253906 114.1333312988281 0.0564425140619278 0.9984058737754822 0
586.9749755859375 497.3663635253906 114.466667175293 0.0564425140619278 0.9984058737754822 0
586.9749755859375 497.3663635253906 112.8000030517578 0.9984058737754822 -0.0564425140619278 0
586.9749755859375 497.3663635253906 114.8000030517578 0.9984058737754822 -0.0564425140619278 0
587.0010375976563 497.8280944824219 112.8000030517578 0.9984058737754822 -0.0564425140619278 0
587.0010375976563 497.8280944824219 114.8000030517578 0.9984058737754822 -0.0564425140619278 0
587.0271606445313 498.289794921875 112.8000030517578 0.9984058737754822 -0.0564425140619278 0
587.0271606445313 498.289794921875 114.8000030517578 0.9984058737754822 -0.0564425140619278 0
586.9749755859375 497.3663635253906 114.466667175293 0.9984058737754822 -0.0564425140619278 0
586.9749755859375 497.3663635253906 114.1333312988281 0.9984058737754822 -0.0564425140619278 0
586.9749755859375 497.3663635253906 113.8000030517578 0.9984058737754822 -0.0564425140619278 0
586.9749755859375 497.3663635253906 113.466667175293 0.9984058737754822 -0.0564425140619278 0
586.9749755859375 497.3663635253906 113.1333312988281 0.9984058737754822 -0.0564425140619278 0
587.0271606445313 498.289794921875 113.1333312988281 0.9984058737754822 -0.0564425140619278 0
587.0271606445313 498.289794921875 113.466667175293 0.9984058737754822 -0.0564425140619278 0
587.0271606445313 498.289794921875 113.8000030517578 0.9984058737754822 -0.0564425140619278 0
587.0271606445313 498.289794921875 114.1333312988281 0.9984058737754822 -0.0564425140619278 0
587.0271606445313 498.289794921875 114.466667175293 0.9984058737754822 -0.0564425140619278 0
587.0010375976563 497.8280944824219 113.8000030517578 0.9984058737754822 -0.0564425140619278 0
587.0010375976563 497.8280944824219 114.3000030517578 0.9984058737754822 -0.0564425140619278 0
587.0271606445313 498.289794921875 112.8000030517578 0.05645482242107391 0.9984051585197449 0
587.0271606445313 498.289794921875 114.8000030517578 0.05645482242107391 0.9984051585197449 0
586.53173828125 498.3178100585938 112.8000030517578 0.05645482242107391 0.9984051585197449 0
586.53173828125 498.3178100585938 113.3000030517578 0.05645482242107391 0.9984051585197449 0
586.53173828125 498.3178100585938 113.8000030517578 0.05645482242107391 0.9984051585197449 0
586.53173828125 498.3178100585938 114.3000030517578 0.05645482242107391 0.9984051585197449 0
586.53173828125 498.3178100585938 114.8000030517578 0.05645482242107391 0.9984051585197449 0
586.0362548828125 498.3458251953125 112.8000030517578 0.05645482242107391 0.9984051585197449 0
586.0362548828125 498.3458251953125 113.3000030517578 0.05645482242107391 0.9984051585197449 0
586.0362548828125 498.3458251953125 113.8000030517578 0.05645482242107391 0.9984051585197449 0
586.0362548828125 498.3458251953125 114.3000030517578 0.05645482242107391 0.9984051585197449 0
586.0362548828125 498.3458251953125 114.8000030517578 0.05645482242107391 0.9984051585197449 0
585.5408325195313 498.3738403320313 112.8000030517578 0.05645482242107391 0.9984051585197449 0
585.5408325195313 498.3738403320313 113.3000030517578 0.05645482242107391 0.9984051585197449 0
585.5408325195313 498.3738403320313 113.8000030517578 0.05645482242107391 0.9984051585197449 0
585.5408325195313 498.3738403320313 114.3000030517578 0.05645482242107391 0.9984051585197449 0
585.5408325195313 498.3738403320313 114.8000030517578 0.05645482242107391 0.9984051585197449 0
585.04541015625 498.40185546875 112.8000030517578 0.05645482242107391 0.9984051585197449 0
585.04541015625 498.40185546875 114.8000030517578 0.05645482242107391 0.9984051585197449 0
587.0271606445313 498.289794921875 114.466667175293 0.05645482242107391 0.9984051585197449 0
587.0271606445313 498.289794921875 114.1333312988281 0.05645482242107391 0.9984051585197449 0
587.0271606445313 498.289794921875 113.8000030517578 0.05645482242107391 0.9984051585197449 0
587.0271606445313 498.289794921875 113.466667175293 0.05645482242107391 0.9984051585197449 0
587.0271606445313 498.289794921875 113.1333312988281 0.05645482242107391 0.9984051585197449 0
585.04541015625 498.40185546875 113.1333312988281 0.05645482242107391 0.9984051585197449 0
585.04541015625 498.40185546875 113.466667175293 0.05645482242107391 0.9984051585197449 0
585.04541015625 498.40185546875 113.8000030517578 0.05645482242107391 0.9984051585197449 0
585.04541015625 498.40185546875 114.1333312988281 0.05645482242107391 0.9984051585197449 0
585.04541015625 498.40185546875 114.466667175293 0.05645482242107391 0.9984051585197449 0
585.04541015625 498.40185546875 112.8000030517578 0.9984058737754822 -0.05644228681921959 0
585.04541015625 498.40185546875 114.8000030517578 0.9984058737754822 -0.05644228681921959 0
585.0720825195313 498.8733215332031 112.8000030517578 0.9984058737754822 -0.05644228681921959 -2.168334718862745e-14
585.0720825195313 498.8733215332031 113.3000030517578 0.9984058737754822 -0.05644228681921959 -2.168334718862745e-14
585.0720825195313 498.8733215332031 113.8000030517578 0.9984058737754822 -0.05644228681921959 -2.168334718862745e-14
585.0720825195313 498.8733215332031 114.3000030517578 0.9984058737754822 -0.05644228681921959 -2.168334718862745e-14
585.0720825195313 498.8733215332031 114.8000030517578 0.9984058737754822 -0.05644228681921959 -2.168334718862745e-14
585.0986938476563 499.3447875976563 112.8000030517578 0.9984058737754822 -0.05644228681921959 -2.75743088708506e-14
585.0986938476563 499.3447875976563 113.3000030517578 0.9984058737754822 -0.05644228681921959 -2.75743088708506e-14
585.0986938476563 499.3447875976563 113.8000030517578 0.9984058737754822 -0.05644228681921959 -2.75743088708506e-14
585.0986938476563 499.3447875976563 114.3000030517578 0.9984058737754822 -0.05644228681921959 -2.75743088708506e-14
585.0986938476563 499.3447875976563 114.8000030517578 0.9984058737754822 -0.05644228681921959 -2.75743088708506e-14
585.1253662109375 499.8162536621094 112.8000030517578 0.9984058737754822 -0.05644228681921959 -6.693053602394982e-15
585.1253662109375 499.8162536621094 113.3000030517578 0.9984058737754822 -0.05644228681921959 -6.693053602394982e-15
585.1253662109375 499.8162536621094 113.8000030517578 0.9984058737754822 -0.05644228681921959 -6.693053602394982e-15
585.1253662109375 499.8162536621094 114.3000030517578 0.9984058737754822 -0.05644228681921959 -6.693053602394982e-15
585.1253662109375 499.8162536621094 114.8000030517578 0.9984058737754822 -0.05644228681921959 -6.693053602394982e-15
585.1520385742188 500.2877502441406 112.8000030517578 0.9984058737754822 -0.05644228681921959 2.837640163805538e-14
585.1520385742188 500.2877502441406 113.3000030517578 0.9984058737754822 -0.05644228681921959 2.837640163805538e-14
585.1520385742188 500.2877502441406 113.8000030517578 0.9984058737754822 -0.05644228681921959 2.837640163805538e-14
585.1520385742188 500.2877502441406 114.3000030517578 0.9984058737754822 -0.05644228681921959 2.837640163805538e-14
585.1520385742188 500.2877502441406 114.8000030517578 0.9984058737754822 -0.05644228681921959 2.837640163805538e-14
585.1786499023438 500.7592163085938 112.8000030517578 0.9984058737754822 -0.05644228681921959 2.837640163805538e-14
585.1786499023438 500.7592163085938 113.3000030517578 0.9984058737754822 -0.05644228681921959 2.837640163805538e-14
585.1786499023438 500.7592163085938 113.8000030517578 0.9984058737754822 -0.05644228681921959 2.837640163805538e-14
585.1786499023438 500.7592163085938 114.3000030517578 0.9984058737754822 -0.05644228681921959 2.837640163805538e-14
585.1786499023438 500.7592163085938 114.8000030517578 0.9984058737754822 -0.05644228681921959 2.837640163805538e-14
585.205322265625 501.2306823730469 112.8000030517578 0.9984058737754822 -0.05644228681921959 8.020931377816906e-16
585.205322265625 501.2306823730469 113.3000030517578 0.9984058737754822 -0.05644228681921959 8.020931377816906e-16
585.205322265625 501.2306823730469 113.8000030517578 0.9984058737754822 -0.05644228681921959 8.020931377816906e-16
585.205322265625 501.2306823730469 114.3000030517578 0.9984058737754822 -0.05644228681921959 8.020931377816906e-16
585.205322265625 501.2306823730469 114.8000030517578 0.9984058737754822 -0.05644228681921959 8.020931377816906e-16
585.2319946289063 501.7021484375 112.8000030517578 0.9984058737754822 -0.05644228681921959 -2.75743088708506e-14
585.2319946289063 501.7021484375 113.3000030517578 0.9984058737754822 -0.05644228681921959 -2.75743088708506e-14
585.2319946289063 501.7021484375 113.8000030517578 0.9984058737754822 -0.05644228681921959 -2.75743088708506e-14
585.2319946289063 501.7021484375 114.3000030517578 0.9984058737754822 -0.05644228681921959 -2.75743088708506e-14
585.2319946289063 501.7021484375 114.8000030517578 0.9984058737754822 -0.05644228681921959 -2.75743088708506e-14
585.2586059570313 502.1736145019531 112.8000030517578 0.9984058737754822 -0.05644228681921959 0
585.2586059570313 502.1736145019531 113.3000030517578 0.9984058737754822 -0.05644228681921959 0
585.2586059570313 502.1736145019531 113.8000030517578 0.9984058737754822 -0.05644228681921959 0
585.2586059570313 502.1736145019531 114.3000030517578 0.9984058737754822 -0.05644228681921959 0
585.2586059570313 502.1736145019531 114.8000030517578 0.9984058737754822 -0.05644228681921959 0
585.2852783203125 502.6450805664063 112.8000030517578 0.9984058737754822 -0.05644228681921959 0
585.2852783203125 502.6450805664063 113.3000030517578 0.9984058737754822 -0.05644228681921959 0
585.2852783203125 502.6450805664063 113.8000030517578 0.9984058737754822 -0.05644228681921959 0
585.2852783203125 502.6450805664063 114.3000030517578 0.9984058737754822 -0.05644228681921959 0
585.2852783203125 502.6450805664063 114.8000030517578 0.9984058737754822 -0.05644228681921959 0
585.3119506835938 503.1165466308594 112.8000030517578 0.9984058737754822 -0.05644228681921959 0
585.3119506835938 503.1165466308594 113.3000030517578 0.9984058737754822 -0.05644228681921959 0
585.3119506835938 503.1165466308594 113.8000030517578 0.9984058737754822 -0.05644228681921959 0
585.3119506835938 503.1165466308594 114.3000030517578 0.9984058737754822 -0.05644228681921959 0
585.3119506835938 503.1165466308594 114.8000030517578 0.9984058737754822 -0.05644228681921959 0
585.3385620117188 503.5880126953125 112.8000030517578 0.9984058737754822 -0.05644228681921959 2.837640163805538e-14
585.3385620117188 503.5880126953125 113.3000030517578 0.9984058737754822 -0.05644228681921959 2.837640163805538e-14
585.3385620117188 503.5880126953125 113.8000030517578 0.9984058737754822 -0.05644228681921959 2.837640163805538e-14
585.3385620117188 503.5880126953125 114.3000030517578 0.9984058737754822 -0.05644228681921959 2.837640163805538e-14
585.3385620117188 503.5880126953125 114.8000030517578 0.9984058737754822 -0.05644228681921959 2.837640163805538e-14
585.365234375 504.0594787597656 112.8000030517578 0.9984058737754822 -0.05644228681921959 0
585.365234375 504.0594787597656 113.3000030517578 0.9984058737754822 -0.05644228681921959 0
585.365234375 504.0594787597656 113.8000030517578 0.9984058737754822 -0.05644228681921959 0
585.365234375 504.0594787597656 114.3000030517578 0.9984058737754822 -0.05644228681921959 0
585.365234375 504.0594787597656 114.8000030517578 0.9984058737754822 -0.05644228681921959 0
585.3919067382813 504.5309448242188 112.8000030517578 0.9984058737754822 -0.05644228681921959 -2.998058886653082e-14
585.3919067382813 504.5309448242188 113.3000030517578 0.9984058737754822 -0.05644228681921959 -2.998058886653082e-14
585.3919067382813 504.5309448242188 113.8000030517578 0.9984058737754822 -0.05644228681921959 -2.998058886653082e-14
585.3919067382813 504.5309448242188 114.3000030517578 0.9984058737754822 -0.05644228681921959 -2.998058886653082e-14
585.3919067382813 504.5309448242188 114.8000030517578 0.9984058737754822 -0.05644228681921959 -2.998058886653082e-14
585.4185791015625 505.00244140625 112.8000030517578 0.9984058737754822 -0.05644228681921959 -2.837640163805538e-14
585.4185791015625 505.00244140625 113.3000030517578 0.9984058737754822 -0.05644228681921959 -2.837640163805538e-14
585.4185791015625 505.00244140625 113.8000030517578 0.9984058737754822 -0.05644228681921959 -2.837640163805538e-14
585.4185791015625 505.00244140625 114.3000030517578 0.9984058737754822 -0.05644228681921959 -2.837640163805538e-14
585.4185791015625 505.00244140625 114.8000030517578 0.9984058737754822 -0.05644228681921959 -2.837640163805538e-14
585.4451904296875 505.4739074707031 112.8000030517578 0.9984058737754822 -0.05644228681921959 0
585.4451904296875 505.4739074707031 113.3000030517578 0.9984058737754822 -0.05644228681921959 0
585.4451904296875 505.4739074707031 113.8000030517578 0.9984058737754822 -0.05644228681921959 0
585.4451904296875 505.4739074707031 114.3000030517578 0.9984058737754822 -0.05644228681921959 0
585.4451904296875 505.4739074707031 114.8000030517578 0.9984058737754822 -0.05644228681921959 0
585.4718627929688 505.9453735351563 112.8000030517578 0.9984058737754822 -0.05644228681921959 0
585.4718627929688 505.9453735351563 113.3000030517578 0.9984058737754822 -0.05644228681921959 0
585.4718627929688 505.9453735351563 113.8000030517578 0.9984058737754822 -0.05644228681921959 0
585.4718627929688 505.9453735351563 114.3000030517578 0.9984058737754822 -0.05644228681921959 0
585.4718627929688 505.9453735351563 114.8000030517578 0.9984058737754822 -0.05644228681921959 0
585.49853515625 506.4168395996094 112.8000030517578 0.9984058737754822 -0.05644228681921959 0
585.49853515625 506.4168395996094 113.3000030517578 0.9984058737754822 -0.05644228681921959 0
585.49853515625 506.4168395996094 113.8000030517578 0.9984058737754822 -0.05644228681921959 0
585.49853515625 506.4168395996094 114.3000030517578 0.9984058737754822 -0.05644228681921959 0
585.49853515625 506.4168395996094 114.8000030517578 0.9984058737754822 -0.05644228681921959 0
585.525146484375 506.8883056640625 112.8000030517578 0.9984058737754822 -0.05644228681921959 0
585.525146484375 506.8883056640625 114.8000030517578 0.9984058737754822 -0.05644228681921959 0
585.04541015625 498.40185546875 114.466667175293 0.9984058737754822 -0.05644228681921959 0
585.04541015625 498.40185546875 114.1333312988281 0.9984058737754822 -0.05644228681921959 0
585.04541015625 498.40185546875 113.8000030517578 0.9984058737754822 -0.05644228681921959 0
585.04541015625 498.40185546875 113.466667175293 0.9984058737754822 -0.05644228681921959 0
585.04541015625 498.40185546875 113.1333312988281 0.9984058737754822 -0.05644228681921959 0
585.525146484375 506.8883056640625 113.1333312988281 0.9984058737754822 -0.05644228681921959 0
585.525146484375 506.8883056640625 113.466667175293 0.9984058737754822 -0.05644228681921959 0
585.525146484375 506.8883056640625 113.8000030517578 0.9984058737754822 -0.05644228681921959 0
585.525146484375 506.8883056640625 114.1333312988281 0.9984058737754822 -0.05644228681921959 0
585.525146484375 506.8883056640625 114.466667175293 0.9984058737754822 -0.05644228681921959 0
585.525146484375 506.8883056640625 112.8000030517578 0.05644240602850914 0.9984058737754822 0
585.525146484375 506.8883056640625 114.8000030517578 0.05644240602850914 0.9984058737754822 0
585.0330810546875 506.9161376953125 112.8000030517578 0.05644240602850914 0.9984058737754822 4.750192531937638e-15
585.0330810546875 506.9161376953125 113.3000030517578 0.05644240602850914 0.9984058737754822 4.750192531937638e-15
585.0330810546875 506.9161376953125 113.8000030517578 0.05644240602850914 0.9984058737754822 4.750192531937638e-15
585.0330810546875 506.9161376953125 114.3000030517578 0.05644240602850914 0.9984058737754822 4.750192531937638e-15
585.0330810546875 506.9161376953125 114.8000030517578 0.05644240602850914 0.9984058737754822 4.750192531937638e-15
584.541015625 506.9439392089844 112.8000030517578 0.05644240602850914 0.9984058737754822 6.292005524726699e-15
584.541015625 506.9439392089844 113.3000030517578 0.05644240602850914 0.9984058737754822 6.292005524726699e-15
584.541015625 506.9439392089844 113.8000030517578 0.05644240602850914 0.9984058737754822 6.292005524726699e-15
584.541015625 506.9439392089844 114.3000030517578 0.05644240602850914 0.9984058737754822 6.292005524726699e-15
584.541015625 506.9439392089844 114.8000030517578 0.05644240602850914 0.9984058737754822 6.292005524726699e-15
584.0489501953125 506.9717712402344 112.8000030517578 0.05644240602850914 0.9984058737754822 8.698289755571659e-15
584.0489501953125 506.9717712402344 113.3000030517578 0.05644240602850914 0.9984058737754822 8.698289755571659e-15
584.0489501953125 506.9717712402344 113.8000030517578 0.05644240602850914 0.9984058737754822 8.698289755571659e-15
584.0489501953125 506.9717712402344 114.3000030517578 0.05644240602850914 0.9984058737754822 8.698289755571659e-15
584.0489501953125 506.9717712402344 114.8000030517578 0.05644240602850914 0.9984058737754822 8.698289755571659e-15
583.556884765625 506.9995727539063 112.8000030517578 0.05644240602850914 0.9984058737754822 -1.418820081902769e-14
583.556884765625 506.9995727539063 113.3000030517578 0.05644240602850914 0.9984058737754822 -1.418820081902769e-14
583.556884765625 506.9995727539063 113.8000030517578 0.05644240602850914 0.9984058737754822 -1.418820081902769e-14
583.556884765625 506.9995727539063 114.3000030517578 0.05644240602850914 0.9984058737754822 -1.418820081902769e-14
583.556884765625 506.9995727539063 114.8000030517578 0.05644240602850914 0.9984058737754822 -1.418820081902769e-14
583.0648193359375 507.0274047851563 112.8000030517578 0.05644240602850914 0.9984058737754822 1.338610551072407e-14
583.0648193359375 507.0274047851563 113.3000030517578 0.05644240602850914 0.9984058737754822 1.338610551072407e-14
583.0648193359375 507.0274047851563 113.8000030517578 0.05644240602850914 0.9984058737754822 1.338610551072407e-14
583.0648193359375 507.0274047851563 114.3000030517578 0.05644240602850914 0.9984058737754822 1.338610551072407e-14
583.0648193359375 507.0274047851563 114.8000030517578 0.05644240602850914 0.9984058737754822 1.338610551072407e-14
582.57275390625 507.0552062988281 112.8000030517578 0.05644240602850914 0.9984058737754822 1.579239058860198e-14
582.57275390625 507.0552062988281 113.3000030517578 0.05644240602850914 0.9984058737754822 1.579239058860198e-14
582.57275390625 507.0552062988281 113.8000030517578 0.05644240602850914 0.9984058737754822 1.579239058860198e-14
582.57275390625 507.0552062988281 114.3000030517578 0.05644240602850914 0.9984058737754822 1.579239058860198e-14
582.57275390625 507.0552062988281 114.8000030517578 0.05644240602850914 0.9984058737754822 1.579239058860198e-14
582.0806884765625 507.0830383300781 112.8000030517578 0.05644240602850914 0.9984058737754822 -1.579239058860198e-14
582.0806884765625 507.0830383300781 113.3000030517578 0.05644240602850914 0.9984058737754822 -1.579239058860198e-14
582.0806884765625 507.0830383300781 113.8000030517578 0.05644240602850914 0.9984058737754822 -1.579239058860198e-14
582.0806884765625 507.0830383300781 114.3000030517578 0.05644240602850914 0.9984058737754822 -1.579239058860198e-14
582.0806884765625 507.0830383300781 114.8000030517578 0.05644240602850914 0.9984058737754822 -1.579239058860198e-14
581.5885620117188 507.11083984375 112.8000030517578 0.05644240602850914 0.9984058737754822 2.998059225466261e-14
581.5885620117188 507.11083984375 113.3000030517578 0.05644240602850914 0.9984058737754822 2.998059225466261e-14
581.5885620117188 507.11083984375 113.8000030517578 0.05644240602850914 0.9984058737754822 2.998059225466261e-14
581.5885620117188 507.11083984375 114.3000030517578 0.05644240602850914 0.9984058737754822 2.998059225466261e-14
581.5885620117188 507.11083984375 114.8000030517578 0.05644240602850914 0.9984058737754822 2.998059225466261e-14
581.0964965820313 507.138671875 112.8000030517578 0.05644240602850914 0.9984058737754822 1.60418966369517e-15
581.0964965820313 507.138671875 113.3000030517578 0.05644240602850914 0.9984058737754822 1.60418966369517e-15
581.0964965820313 507.138671875 113.8000030517578 0.05644240602850914 0.9984058737754822 1.60418966369517e-15
581.0964965820313 507.138671875 114.3000030517578 0.05644240602850914 0.9984058737754822 1.60418966369517e-15
581.0964965820313 507.138671875 114.8000030517578 0.05644240602850914 0.9984058737754822 1.60418966369517e-15
580.6044311523438 507.1664733886719 112.8000030517578 0.05644240602850914 0.9984058737754822 -1.60418966369517e-15
580.6044311523438 507.1664733886719 113.3000030517578 0.05644240602850914 0.9984058737754822 -1.60418966369517e-15
580.6044311523438 507.1664733886719 113.8000030517578 0.05644240602850914 0.9984058737754822 -1.60418966369517e-15
580.6044311523438 507.1664733886719 114.3000030517578 0.05644240602850914 0.9984058737754822 -1.60418966369517e-15
580.6044311523438 507.1664733886719 114.8000030517578 0.05644240602850914 0.9984058737754822 -1.60418966369517e-15
580.1123657226563 507.1943054199219 112.8000030517578 0.05644240602850914 0.9984058737754822 -1.60418966369517e-15
580.1123657226563 507.1943054199219 113.3000030517578 0.05644240602850914 0.9984058737754822 -1.60418966369517e-15
580.1123657226563 507.1943054199219 113.8000030517578 0.05644240602850914 0.9984058737754822 -1.60418966369517e-15
580.1123657226563 507.1943054199219 114.3000030517578 0.05644240602850914 0.9984058737754822 -1.60418966369517e-15
580.1123657226563 507.1943054199219 114.8000030517578 0.05644240602850914 0.9984058737754822 -1.60418966369517e-15
579.6203002929688 507.2221374511719 112.8000030517578 0.05644240602850914 0.9984058737754822 -2.837640163805538e-14
579.6203002929688 507.2221374511719 113.3000030517578 0.05644240602850914 0.9984058737754822 -2.837640163805538e-14
579.6203002929688 507.2221374511719 113.8000030517578 0.05644240602850914 0.9984058737754822 -2.837640163805538e-14
579.6203002929688 507.2221374511719 114.3000030517578 0.05644240602850914 0.9984058737754822 -2.837640163805538e-14
579.6203002929688 507.2221374511719 114.8000030517578 0.05644240602850914 0.9984058737754822 -2.837640163805538e-14
579.1282348632813 507.2499389648438 112.8000030517578 0.05644240602850914 0.9984058737754822 0
579.1282348632813 507.2499389648438 113.3000030517578 0.05644240602850914 0.9984058737754822 0
579.1282348632813 507.2499389648438 113.8000030517578 0.05644240602850914 0.9984058737754822 0
579.1282348632813 507.2499389648438 114.3000030517578 0.05644240602850914 0.9984058737754822 0
579.1282348632813 507.2499389648438 114.8000030517578 0.05644240602850914 0.9984058737754822 0
578.6361694335938 507.2777709960938 112.8000030517578 0.05644240602850914 0.9984058737754822 0
578.6361694335938 507.2777709960938 114.8000030517578 0.05644240602850914 0.9984058737754822 0
585.525146484375 506.8883056640625 114.466667175293 0.05644240602850914 0.9984058737754822 0
585.525146484375 506.8883056640625 114.1333312988281 0.05644240602850914 0.9984058737754822 0
585.525146484375 506.8883056640625 113.8000030517578 0.05644240602850914 0.9984058737754822 0
585.525146484375 506.8883056640625 113.466667175293 0.05644240602850914 0.9984058737754822 0
585.525146484375 506.8883056640625 113.1333312988281 0.05644240602850914 0.9984058737754822 0
578.6361694335938 507.2777709960938 113.1333312988281 0.05644240602850914 0.9984058737754822 0
578.6361694335938 507.2777709960938 113.466667175293 0.05644240602850914 0.9984058737754822 0
578.6361694335938 507.2777709960938 113.8000030517578 0.05644240602850914 0.9984058737754822 0
578.6361694335938 507.2777709960938 114.1333312988281 0.05644240602850914 0.9984058737754822 0
578.6361694335938 507.2777709960938 114.466667175293 0.05644240602850914 0.9984058737754822 0
577.9843139648438 495.7461853027344 114.8000030517578 0.05643856152892113 0.9984060525894165 0
577.506591796875 495.773193359375 114.3000030517578 0.05643856152892113 0.9984060525894165 1.559177422317658e-14
577.506591796875 495.773193359375 114.8000030517578 0.05643856152892113 0.9984060525894165 1.559177422317658e-14
577.0288696289063 495.8002014160156 114.3000030517578 0.05643856152892113 0.9984060525894165 -7.896141931225311e-15
577.0288696289063 495.8002014160156 114.8000030517578 0.05643856152892113 0.9984060525894165 -7.896141931225311e-15
576.5510864257813 495.8272094726563 114.3000030517578 0.05643856152892113 0.9984060525894165 5.891041726836669e-15
576.5510864257813 495.8272094726563 114.8000030517578 0.05643856152892113 0.9984060525894165 5.891041726836669e-15
576.0733642578125 495.8542175292969 114.3000030517578 0.05643856152892113 0.9984060525894165 1.258412285780244e-14
576.0733642578125 495.8542175292969 114.8000030517578 0.05643856152892113 0.9984060525894165 1.258412285780244e-14
575.5956420898438 495.8812255859375 114.3000030517578 0.05643856152892113 0.9984060525894165 8.020401982224872e-16
575.5956420898438 495.8812255859375 114.8000030517578 0.05643856152892113 0.9984060525894165 8.020401982224872e-16
575.1178588867188 495.9082336425781 114.3000030517578 0.05643856152892113 0.9984060525894165 1.338616310896448e-14
575.1178588867188 495.9082336425781 114.8000030517578 0.05643856152892113 0.9984060525894165 1.338616310896448e-14
574.64013671875 495.9352416992188 114.3000030517578 0.05643856152892113 0.9984060525894165 0
574.64013671875 495.9352416992188 114.8000030517578 0.05643856152892113 0.9984060525894165 0
574.1624145507813 495.9622497558594 114.3000030517578 0.05643856152892113 0.9984060525894165 0
574.1624145507813 495.9622497558594 114.8000030517578 0.05643856152892113 0.9984060525894165 0
573.6846313476563 495.9892578125 114.3000030517578 0.05643856152892113 0.9984060525894165 1.604080396444974e-15
573.6846313476563 495.9892578125 114.8000030517578 0.05643856152892113 0.9984060525894165 1.604080396444974e-15
573.2069091796875 496.0162658691406 114.3000030517578 0.05643856152892113 0.9984060525894165 -1.604080396444974e-15
573.2069091796875 496.0162658691406 114.8000030517578 0.05643856152892113 0.9984060525894165 -1.604080396444974e-15
572.7291870117188 496.0432739257813 114.3000030517578 0.05643856152892113 0.9984060525894165 1.604080396444974e-15
572.7291870117188 496.0432739257813 114.8000030517578 0.05643856152892113 0.9984060525894165 1.604080396444974e-15
572.2514038085938 496.0702514648438 114.3000030517578 0.05643856152892113 0.9984060525894165 0
572.2514038085938 496.0702514648438 114.8000030517578 0.05643856152892113 0.9984060525894165 0
571.773681640625 496.0972595214844 114.3000030517578 0.05643856152892113 0.9984060525894165 1.604080396444974e-15
571.773681640625 496.0972595214844 114.8000030517578 0.05643856152892113 0.9984060525894165 1.604080396444974e-15
571.2959594726563 496.124267578125 114.3000030517578 0.05643856152892113 0.9984060525894165 2.837640672025306e-14
571.2959594726563 496.124267578125 114.8000030517578 0.05643856152892113 0.9984060525894165 2.837640672025306e-14
570.8181762695313 496.1512756347656 112.8000030517578 0.05643856152892113 0.9984060525894165 0
570.8181762695313 496.1512756347656 113.8000030517578 0.05643856152892113 0.9984060525894165 0
570.8181762695313 496.1512756347656 114.8000030517578 0.05643856152892113 0.9984060525894165 0
570.8181762695313 496.1512756347656 113.1333312988281 0.05643856152892113 0.9984060525894165 0
570.8181762695313 496.1512756347656 113.466667175293 0.05643856152892113 0.9984060525894165 0
570.8181762695313 496.1512756347656 114.1333312988281 0.05643856152892113 0.9984060525894165 0
570.8181762695313 496.1512756347656 114.466667175293 0.05643856152892113 0.9984060525894165 0
571.1178588867188 496.1343383789063 113.9000015258789 0.05643856152892113 0.9984060525894165 0
571.1178588867188 496.1343383789063 113.533332824707 0.05643856152892113 0.9984060525894165 0
571.1178588867188 496.1343383789063 113.1666641235352 0.05643856152892113 0.9984060525894165 0
571.1178588867188 496.1343383789063 112.8000030517578 0.05643856152892113 0.9984060525894165 0
577.9843139648438 495.7461853027344 113.9000015258789 0.05643856152892113 0.9984060525894165 0
577.6229248046875 495.7666320800781 113.9000015258789 0.05643856152892113 0.9984060525894165 0
577.2615356445313 495.7870483398438 113.9000015258789 0.05643856152892113 0.9984060525894165 0
576.900146484375 495.8074645996094 113.9000015258789 0.05643856152892113 0.9984060525894165 0
576.5387573242188 495.8279113769531 113.9000015258789 0.05643856152892113 0.9984060525894165 0
576.1773681640625 495.8483276367188 113.9000015258789 0.05643856152892113 0.9984060525894165 0
575.8159790039063 495.8687744140625 113.9000015258789 0.05643856152892113 0.9984060525894165 0
575.45458984375 495.8891906738281 113.9000015258789 0.05643856152892113 0.9984060525894165 0
575.0932006835938 495.9096374511719 113.9000015258789 0.05643856152892113 0.9984060525894165 0
574.7318115234375 495.9300537109375 113.9000015258789 0.05643856152892113 0.9984060525894165 0
574.3704223632813 495.9504699707031 113.9000015258789 0.05643856152892113 0.9984060525894165 0
574.009033203125 495.9709167480469 113.9000015258789 0.05643856152892113 0.9984060525894165 0
573.6476440429688 495.9913330078125 113.9000015258789 0.05643856152892113 0.9984060525894165 0
573.2862548828125 496.0117797851563 113.9000015258789 0.05643856152892113 0.9984060525894165 0
572.9248657226563 496.0321960449219 113.9000015258789 0.05643856152892113 0.9984060525894165 0
572.5634155273438 496.0526428222656 113.9000015258789 0.05643856152892113 0.9984060525894165 0
572.2020263671875 496.0730590820313 113.9000015258789 0.05643856152892113 0.9984060525894165 0
571.8406372070313 496.0934753417969 113.9000015258789 0.05643856152892113 0.9984060525894165 0
571.479248046875 496.1139221191406 113.9000015258789 0.05643856152892113 0.9984060525894165 0
577.9843139648438 495.7461853027344 114.5 0.05643856152892113 0.9984060525894165 0
577.9843139648438 495.7461853027344 114.1999969482422 0.05643856152892113 0.9984060525894165 0
570.448486328125 489.6117248535156 112.8000030517578 -0.05644262209534645 -0.9984058737754822 0
570.448486328125 489.6117248535156 114.8000030517578 -0.05644262209534645 -0.9984058737754822 0
570.9265747070313 489.584716796875 114.3000030517578 -0.05644262209534645 -0.9984058737754822 1.002622417632193e-15
570.9265747070313 489.584716796875 114.8000030517578 -0.05644262209534645 -0.9984058737754822 1.002622417632193e-15
571.4046630859375 489.5576782226563 114.3000030517578 -0.05644262209534645 -0.9984058737754822 4.010489511710095e-16
571.4046630859375 489.5576782226563 114.8000030517578 -0.05644262209534645 -0.9984058737754822 4.010489511710095e-16
571.8826904296875 489.5306396484375 114.3000030517578 -0.05644262209534645 -0.9984058737754822 0
571.8826904296875 489.5306396484375 114.8000030517578 -0.05644262209534645 -0.9984058737754822 0
572.3607788085938 489.5036315917969 114.3000030517578 -0.05644262209534645 -0.9984058737754822 8.020979023420189e-16
572.3607788085938 489.5036315917969 114.8000030517578 -0.05644262209534645 -0.9984058737754822 8.020979023420189e-16
572.8388671875 489.4765930175781 114.3000030517578 -0.05644262209534645 -0.9984058737754822 8.020979023420189e-16
572.8388671875 489.4765930175781 114.8000030517578 -0.05644262209534645 -0.9984058737754822 8.020979023420189e-16
573.31689453125 489.4495849609375 114.3000030517578 -0.05644262209534645 -0.9984058737754822 -1.604195804684038e-15
573.31689453125 489.4495849609375 114.8000030517578 -0.05644262209534645 -0.9984058737754822 -1.604195804684038e-15
573.7949829101563 489.4225463867188 114.3000030517578 -0.05644262209534645 -0.9984058737754822 1.579239567079966e-14
573.7949829101563 489.4225463867188 114.8000030517578 -0.05644262209534645 -0.9984058737754822 1.579239567079966e-14
574.2730712890625 489.3955078125 114.3000030517578 -0.05644262209534645 -0.9984058737754822 -1.604195804684038e-15
574.2730712890625 489.3955078125 114.8000030517578 -0.05644262209534645 -0.9984058737754822 -1.604195804684038e-15
574.7511596679688 489.3684997558594 114.3000030517578 -0.05644262209534645 -0.9984058737754822 0
574.7511596679688 489.3684997558594 114.8000030517578 -0.05644262209534645 -0.9984058737754822 0
575.2291870117188 489.3414611816406 114.3000030517578 -0.05644262209534645 -0.9984058737754822 -1.604195804684038e-15
575.2291870117188 489.3414611816406 114.8000030517578 -0.05644262209534645 -0.9984058737754822 -1.604195804684038e-15
575.707275390625 489.314453125 114.3000030517578 -0.05644262209534645 -0.9984058737754822 1.604195804684038e-15
575.707275390625 489.314453125 114.8000030517578 -0.05644262209534645 -0.9984058737754822 1.604195804684038e-15
576.1853637695313 489.2874145507813 114.3000030517578 -0.05644262209534645 -0.9984058737754822 0
576.1853637695313 489.2874145507813 114.8000030517578 -0.05644262209534645 -0.9984058737754822 0
576.6633911132813 489.2603759765625 114.3000030517578 -0.05644262209534645 -0.9984058737754822 0
576.6633911132813 489.2603759765625 114.8000030517578 -0.05644262209534645 -0.9984058737754822 0
577.1414794921875 489.2333679199219 114.3000030517578 -0.05644262209534645 -0.9984058737754822 0
577.1414794921875 489.2333679199219 114.8000030517578 -0.05644262209534645 -0.9984058737754822 0
577.6195678710938 489.2063293457031 114.8000030517578 -0.05644262209534645 -0.9984058737754822 0
570.448486328125 489.6117248535156 114.466667175293 -0.05644262209534645 -0.9984058737754822 0
570.448486328125 489.6117248535156 114.1333312988281 -0.05644262209534645 -0.9984058737754822 0
570.448486328125 489.6117248535156 113.8000030517578 -0.05644262209534645 -0.9984058737754822 0
570.448486328125 489.6117248535156 113.466667175293 -0.05644262209534645 -0.9984058737754822 0
570.448486328125 489.6117248535156 113.1333312988281 -0.05644262209534645 -0.9984058737754822 0
570.7486572265625 489.5947570800781 112.8000030517578 -0.05644262209534645 -0.9984058737754822 0
570.7486572265625 489.5947570800781 113.1666641235352 -0.05644262209534645 -0.9984058737754822 0
570.7486572265625 489.5947570800781 113.533332824707 -0.05644262209534645 -0.9984058737754822 0
570.7486572265625 489.5947570800781 113.9000015258789 -0.05644262209534645 -0.9984058737754822 0
571.1102905273438 489.5743103027344 113.9000015258789 -0.05644262209534645 -0.9984058737754822 0
571.471923828125 489.5538635253906 113.9000015258789 -0.05644262209534645 -0.9984058737754822 0
571.8335571289063 489.5334167480469 113.9000015258789 -0.05644262209534645 -0.9984058737754822 0
572.1951904296875 489.5130004882813 113.9000015258789 -0.05644262209534645 -0.9984058737754822 0
572.5568237304688 489.4925537109375 113.9000015258789 -0.05644262209534645 -0.9984058737754822 0
572.91845703125 489.4721069335938 113.9000015258789 -0.05644262209534645 -0.9984058737754822 0
573.280029296875 489.45166015625 113.9000015258789 -0.05644262209534645 -0.9984058737754822 0
573.6416625976563 489.4312133789063 113.9000015258789 -0.05644262209534645 -0.9984058737754822 0
574.0032958984375 489.4107666015625 113.9000015258789 -0.05644262209534645 -0.9984058737754822 0
574.3649291992188 489.3903198242188 113.9000015258789 -0.05644262209534645 -0.9984058737754822 0
574.7265625 489.369873046875 113.9000015258789 -0.05644262209534645 -0.9984058737754822 0
575.0881958007813 489.3494262695313 113.9000015258789 -0.05644262209534645 -0.9984058737754822 0
575.4498291015625 489.3290100097656 113.9000015258789 -0.05644262209534645 -0.9984058737754822 0
